# .PCD v0.7 - Point Cloud Data file format
VERSION 0.7
FIELDS x y z intensity
SIZE 4 4 4 4
TYPE F F F F
COUNT 1 1 1 1
WIDTH 1455
HEIGHT 1
VIEWPOINT 0 0 0 1 0 0 0
POINTS 1455
DATA ascii
7.1027398 -7.6631432 1.6012197 0
-6.4429154 -7.2195234 1.979242 0
-5.2837558 -7.3951015 1.6355329 0
-4.7539091 -7.4222488 1.61883 0
2.3607678 -7.2193165 1.7357097 0
6.383317 -7.3107662 1.6650956 0
6.4427299 -7.4372153 1.7256995 0
-5.2935233 -6.9997845 1.6307685 0
-4.8049207 -6.8953242 1.6075011 0
-4.789793 -7.1118565 1.6329763 0
2.3732183 -7.122787 1.8284838 0
2.5009542 -6.9703684 1.7860389 0
3.7872481 -7.0192122 1.8532765 0
4.3260088 -7.1274695 1.9515634 0
5.2979465 -6.8958402 1.7431074 0
6.2788072 -7.0994487 1.7140361 0
6.4395022 -7.0945582 1.7650195 0
-5.3226967 -6.6087608 1.6297705 0
-4.8196588 -6.7215986 1.6167274 0
2.3643966 -6.6139646 1.9838009 0
2.6008792 -6.551609 1.7668182 0
2.9908476 -6.4473896 1.7192118 0
3.4477367 -6.5462518 1.7259725 0
3.8334191 -6.4786582 1.695765 0
4.2184119 -6.6165848 1.708164 0
4.6467586 -6.4843264 1.6506269 0
5.0378342 -6.5051289 1.65724 0
5.3578396 -6.5285521 1.7237643 0
5.7256827 -6.4333205 1.69249 0
6.1954308 -6.5713921 1.9874247 0
6.4486685 -6.5060191 1.8455106 0
-6.1977963 -6.0487957 1.8729464 0
-5.8516998 -6.238656 1.9171655 0
-5.333344 -6.1720662 1.733327 0
-4.8663535 -6.2231069 1.6886858 0
2.3731773 -6.310318 1.815573 0
2.5494475 -6.3221436 1.800935 0
2.9829643 -6.3105474 1.7772317 0
3.4707704 -6.3388376 1.7566173 0
3.7519777 -6.3045187 1.7689754 0
4.2805543 -6.3032255 1.7555007 0
4.6203551 -6.2511687 1.7830392 0
4.9900918 -6.3008757 1.7876116 0
5.3736644 -6.3130565 1.8050241 0
5.8275042 -6.3239031 1.7378536 0
6.2194953 -6.3088651 1.7796149 0
6.4441953 -6.2078967 1.7869086 0
-7.2802253 -5.6637201 1.8851051 0
-6.8524261 -5.6451945 1.7957625 0
-6.5276723 -5.6618056 1.8849827 0
-6.1707253 -5.7197232 1.8952279 0
-5.7339554 -5.6631508 1.8146694 0
-5.4079514 -5.7547898 1.7530749 0
-5.0572352 -5.6421814 1.6577648 0
2.7976515 -5.8180361 1.7835066 0
2.9747086 -5.8174615 1.7697937 0
3.432301 -5.8290796 1.71943 0
3.9404635 -5.8250146 1.7344092 0
4.1557765 -5.7994628 1.730576 0
4.7750168 -5.6566715 1.6492913 0
4.9598746 -5.9035363 1.6739441 0
5.5914335 -5.8093843 1.6046674 0
5.8132591 -5.8156562 1.6719339 0
6.2583399 -5.8216581 1.7652471 0
6.4441524 -5.7816315 1.7732273 0
-7.2770219 -5.5605564 1.8920707 0
-7.136642 -5.4800272 1.7745895 0
-6.1626053 -5.331748 1.8768247 0
-5.7814317 -5.372694 1.6909943 0
-5.2466369 -5.4299393 1.7436571 0
-5.1430798 -5.4092155 1.7411362 0
-4.7674713 -5.4068093 1.6588343 0
2.370214 -5.2384996 1.7506231 0
2.4170907 -5.2483468 1.7276056 0
4.2651057 -5.229691 1.9829519 0
6.2462792 -5.2875738 1.7467625 0
6.4356651 -5.3913403 1.7748884 0
-6.2105126 -5.0295305 1.8928308 0
-5.7357097 -5.0277166 1.6248723 0
2.3576519 -5.1023779 1.8062528 0
2.5344679 -4.9610629 1.7345558 0
2.8172479 -5.0401392 1.8655505 0
3.3959768 -4.8038955 1.701713 0
3.7974851 -5.0232468 1.6725969 0
4.3004746 -5.0729728 1.9658041 0
5.0843406 -4.9341803 1.8708003 0
5.4811473 -5.0284257 1.7338806 0
5.7867322 -5.0224905 1.7242601 0
6.3921351 -5.0591989 1.8194698 0
6.4374943 -5.0152016 1.7971562 0
-6.1786008 -4.6335325 1.8456216 0
-5.7302775 -4.546042 1.8195447 0
2.3648121 -4.4478779 1.8551023 0
2.6018984 -4.5723133 1.7804815 0
2.9651973 -4.4981484 1.7963808 0
3.397687 -4.5098877 1.7264358 0
3.7996039 -4.4917011 1.7247579 0
4.236485 -4.5250373 1.7204577 0
4.6069002 -4.5397158 1.8108917 0
5.1265926 -4.6338382 1.8212152 0
5.3712039 -4.510766 1.71538 0
5.8049231 -4.4980879 1.7151904 0
6.382699 -4.5283594 1.8191202 0
6.4462452 -4.5283451 1.7672104 0
-6.1896386 -4.2040076 1.7650368 0
-5.7079067 -4.2228355 1.8341209 0
2.3728094 -4.3770857 1.7875431 0
2.5943739 -4.3687334 1.8408657 0
2.9476097 -4.2852988 1.8169025 0
3.4277973 -4.3676009 1.8421555 0
3.7794468 -4.3446369 1.8024248 0
4.2719774 -4.3755255 1.7668095 0
4.7116923 -4.3410373 1.8443216 0
5.0749574 -4.3543282 1.8690338 0
5.3941875 -4.1963902 1.857736 0
5.7494497 -4.331543 1.8491483 0
6.3780766 -4.2153811 1.8334244 0
6.4409881 -4.1991291 1.7831862 0
-7.2875996 -3.7984884 1.8503913 0
-6.1450615 -3.7374246 1.7615138 0
-5.726614 -3.7949936 1.8078853 0
2.7330625 -3.8744669 1.8281876 0
2.9508736 -3.8802598 1.7382412 0
3.4159768 -3.9128973 1.7315117 0
3.8915045 -3.8945179 1.7028952 0
4.23738 -3.8630435 1.703243 0
4.6865463 -3.8125837 1.8225975 0
5.4947453 -3.8597729 1.796546 0
6.3992319 -3.7546258 1.7997006 0
6.4361653 -3.81179 1.7843646 0
-6.2106194 -3.3908353 1.7822568 0
-5.7116122 -3.3989439 1.8167914 0
2.3634455 -3.4010227 1.8521529 0
2.490056 -3.2982624 1.7916504 0
2.9993794 -3.2591746 1.7540798 0
3.513916 -3.2269831 1.7690122 0
3.7651765 -3.3142738 1.7799066 0
4.3049049 -3.4102767 1.8388234 0
4.5254183 -3.2522404 1.6477292 0
4.9531875 -3.2353394 1.6375089 0
5.3469877 -3.2710984 1.6720531 0
5.8058925 -3.2378442 1.6873007 0
6.2945733 -3.4230323 1.7752596 0
6.439734 -3.3954153 1.7705535 0
-6.1535139 -3.0466704 1.7541393 0
-5.7139969 -3.011714 1.7861995 0
2.364038 -3.0238025 1.9720452 0
2.5557554 -2.9878476 1.7639531 0
2.844964 -2.819195 1.7551014 0
3.4346759 -2.9700451 1.7441145 0
3.8686764 -2.8216186 1.6941056 0
4.320189 -2.9321105 1.699734 0
4.560925 -2.8691518 1.6948806 0
5.1572948 -2.8577664 1.6762098 0
5.2977042 -2.9851949 1.722039 0
5.9913187 -3.179652 1.6624163 0
6.2333226 -3.0607884 1.8457751 0
6.4403811 -3.0750527 1.83795 0
-6.2203112 -2.5795016 1.790242 0
-5.7125793 -2.5860121 1.7726128 0
2.3654232 -2.6174781 1.8345227 0
2.6057155 -2.6770539 1.7867893 0
2.965301 -2.6984029 1.7425656 0
3.449564 -2.6882029 1.7554153 0
3.8154163 -2.6105671 1.8039938 0
4.2705307 -2.6219802 1.8238314 0
4.5934291 -2.6541619 1.7493917 0
5.0098333 -2.654814 1.7443131 0
5.4136982 -2.7038698 1.7205081 0
5.8023381 -2.6671698 1.7377758 0
6.3217325 -2.6399269 1.8292154 0
6.4301462 -2.6272459 1.8230481 0
-6.4857049 -2.1787267 1.8537183 0
-6.2456927 -2.2303603 1.8177754 0
-5.6799164 -2.1885846 1.7847067 0
-5.5952101 -2.063987 1.699971 0
2.6169827 -2.1248252 1.8324932 0
2.899648 -2.2280722 1.7375609 0
3.3720608 -2.1406949 1.6950473 0
3.7551322 -2.1249964 1.7505777 0
4.206212 -2.0145102 1.7876451 0
4.624402 -2.1321068 1.7262594 0
4.9764481 -2.1251144 1.602381 0
5.497448 -2.0485156 1.7004347 0
5.8135228 -2.0398254 1.7202594 0
6.3808093 -2.2505744 1.7405769 0
6.5291247 -2.1759024 1.8075651 0
-6.4151664 -1.612795 1.90271 0
-6.2688861 -1.7176048 1.8748878 0
-5.6747465 -1.8099593 1.795602 0
-5.5832224 -1.8044794 1.7303656 0
2.3621635 -1.6512842 1.7719091 0
2.4113333 -1.6619341 1.6385384 0
3.1846285 -1.9722624 1.7577434 0
3.8297379 -1.7651491 1.7164104 0
4.2924609 -1.6631341 1.7958891 0
4.5986304 -1.9553915 1.8441782 0
5.1169629 -1.9385694 1.7587929 0
5.8547368 -1.919239 1.6320939 0
6.2173252 -1.7813699 1.7372844 0
6.4265351 -1.8041193 1.7978712 0
-7.2968097 -1.2107629 1.8678232 0
-7.0589256 -1.207902 1.8098534 0
-6.4809046 -1.3143756 1.8045906 0
-6.3612289 -1.433164 1.9191025 0
-5.6392913 -1.3912272 1.6240859 0
-5.5687971 -1.5844672 1.6111034 0
2.3566432 -1.3716878 1.9623234 0
2.560555 -1.3979517 1.7642814 0
2.9778709 -1.4704214 1.7397962 0
3.4073439 -1.3466828 1.7190632 0
3.7465868 -1.5110198 1.7452461 0
4.3361607 -1.4393333 1.7527316 0
4.6055822 -1.4186592 1.6433539 0
5.0364742 -1.4251494 1.6332898 0
5.2896085 -1.3711357 1.7165488 0
6.2926154 -1.2891631 1.888586 0
6.4401741 -1.4465504 1.7989917 0
-7.2683535 -1.1715229 1.8468962 0
-7.0716567 -1.0948629 1.8106703 0
-6.5872951 -0.86753535 1.9314151 0
-6.1388793 -1.0083532 1.8597034 0
-5.7988153 -1.0778831 1.701158 0
-5.2332287 -1.0700006 1.7508482 0
-5.1734552 -1.0688733 1.7303041 0
2.3605912 -0.88916779 1.8512503 0
2.5707805 -0.9655481 1.7555255 0
3.0138402 -0.93256998 1.7131189 0
3.4365406 -1.0109885 1.7159599 0
3.7751236 -0.91217613 1.7648836 0
4.1951895 -0.93548006 1.7599838 0
4.6345325 -0.91310495 1.7547288 0
5.0005975 -0.85606539 1.7944415 0
5.4351258 -0.90139711 1.7509919 0
5.8493218 -0.88384843 1.7068599 0
6.1833339 -0.90830636 1.8523939 0
6.4369712 -0.9101249 1.7747562 0
-6.0704474 -0.57968318 1.8143369 0
2.3714387 -0.7865836 1.8163762 0
2.617816 -0.72598213 1.7606101 0
2.936888 -0.67369705 1.7601351 0
3.4251361 -0.79845381 1.7737494 0
3.8363338 -0.78967404 1.7603378 0
4.222177 -0.79129934 1.7954192 0
4.5038795 -0.75559151 1.8056905 0
5.0492878 -0.74564099 1.7881826 0
5.4813728 -0.79709953 1.8359421 0
6.3257141 -0.63195151 1.7699156 0
6.4310956 -0.61770284 1.7522115 0
-6.5163713 -0.14651051 1.7710621 0
-6.1140499 -0.34743986 1.7992257 0
2.4758732 -0.31933287 1.7084217 0
2.9803705 -0.33077043 1.7765872 0
3.5858757 -0.26016992 1.7461213 0
3.661515 -0.28943673 1.7342834 0
4.2234206 -0.19230905 1.8221596 0
4.4864092 -0.14563854 1.8430347 0
4.9113369 -0.13892071 1.7755849 0
5.4967928 -0.14686301 1.781719 0
5.8284736 -0.18545948 1.7020986 0
6.265408 -0.14552607 1.7094558 0
6.4383631 -0.17782417 1.7528683 0
-7.2843027 0.39046764 1.8245556 0
-6.5111237 0.2336967 1.8070383 0
-6.2517529 0.38266635 1.7447224 0
-5.8928161 0.3897306 1.8736844 0
2.3591201 0.18796042 1.8164307 0
2.5734782 0.31977102 1.791157 0
2.9670019 0.35787776 1.7698621 0
3.4157174 0.38218373 1.6619389 0
3.8171566 0.3699227 1.642182 0
4.2326236 0.24022299 1.7542065 0
4.5541277 0.37315997 1.6525764 0
5.182745 0.35074866 1.7749751 0
5.3563848 0.34411639 1.7806914 0
5.7380953 0.36241728 1.7475193 0
6.292243 0.17322937 1.7806447 0
6.444149 0.13359071 1.7545221 0
-7.2795224 0.44873837 1.8504695 0
-6.5377183 0.4261491 1.8284978 0
-6.1747093 0.42924675 1.8060108 0
-5.7739768 0.54454523 1.832312 0
2.3611941 0.55257648 1.9244928 0
2.5357633 0.59877139 1.7836378 0
3.0328231 0.40490437 1.7740877 0
3.3813677 0.56106019 1.676602 0
4.2851396 0.58832496 1.7646338 0
4.5651503 0.47949678 1.660638 0
5.1141734 0.59349734 1.8175167 0
5.3124747 0.43115807 1.7729955 0
6.3631134 0.5740549 1.8642483 0
6.4382582 0.60621417 1.8054237 0
-7.2888222 1.0843716 1.8193843 0
-5.7256742 0.99696976 1.807119 0
2.3537183 0.99444187 1.8223383 0
2.5513883 0.92593026 1.7883439 0
3.0054514 0.91705 1.7881399 0
3.4166372 0.94787365 1.7786351 0
3.7192523 0.97470582 1.7957317 0
4.2585568 0.96789485 1.8770987 0
4.6190352 0.9802503 1.7762752 0
5.0576658 0.92786294 1.8196386 0
5.3717947 0.89672011 1.7623622 0
5.7756386 0.91131747 1.7705653 0
6.2285967 1.008726 1.8183061 0
6.4353013 0.97601277 1.7812052 0
-7.2846541 1.4325 1.8914543 0
-5.7295289 1.3931684 1.8272736 0
2.329705 1.5359211 1.733579 0
2.5755041 1.4046223 1.7207466 0
3.0556951 1.5010718 1.8188784 0
3.3022377 1.5495645 1.8081441 0
6.3837056 1.46909 1.8548656 0
6.4183273 1.4232476 1.7851654 0
-6.1428657 1.8986772 1.84986 0
-5.7496881 1.7804185 1.8265598 0
3.1199334 1.621146 1.7842757 0
3.6776018 1.6781225 1.79535 0
6.3604231 1.7234266 1.7682076 0
6.4208522 1.8258293 1.7587712 0
-6.0686302 2.1935616 1.7711799 0
6.3717999 2.2554388 1.8388799 0
6.4254699 2.2087159 1.7866231 0
-6.0708513 2.6129088 1.7898606 0
6.3666825 2.6519506 1.8022654 0
6.4291034 2.58582 1.8211393 0
-6.0649819 3.0111482 1.7975706 0
-5.9940391 2.9944296 1.8434883 0
6.3594966 3.0725722 1.8197367 0
6.4192176 3.0012178 1.7985827 0
-7.2894363 3.3300858 1.8274727 0
-7.0463119 3.3622768 1.7822955 0
-6.4795408 3.5225701 1.8227427 0
-6.1485624 3.4016862 1.8183519 0
-5.8286052 3.5019202 1.7956721 0
-5.2490802 3.3842845 1.7659924 0
-5.1719103 3.4236376 1.7323345 0
6.3608837 3.3726628 1.8355551 0
6.4223499 3.4087331 1.8279933 0
-6.2085271 3.7804041 1.7485482 0
-5.7591233 3.7958539 1.8234082 0
6.3194609 3.8457596 1.7716844 0
6.4211922 3.8157449 1.8119047 0
-6.1094084 4.3601871 1.7103266 0
-5.7408819 4.1869259 1.7850111 0
6.3593979 4.180851 1.8064432 0
6.4228606 4.2044744 1.7939118 0
-6.2326655 4.5845995 1.7263088 0
-5.7333961 4.6136861 1.8052553 0
6.3334064 4.6105871 1.8136035 0
6.4200735 4.5840764 1.8245908 0
-7.3056421 4.9650679 1.8096321 0
-6.5410876 5.0599341 1.8526739 0
-6.2207422 5.0381236 1.7967838 0
-5.7473588 4.9632435 1.7850338 0
6.2909603 5.0274725 1.8222172 0
6.4189472 4.9970822 1.8337896 0
-7.2688088 5.2414284 1.8186289 0
-6.9486928 5.2743793 1.8057798 0
-6.4442811 5.3883843 1.8745749 0
-6.3609471 5.4509363 1.8776413 0
-5.7155952 5.3655229 1.6226085 0
6.3395305 5.3732395 1.8588309 0
6.4190865 5.4070845 1.8375052 0
-6.4166422 5.6669121 1.91179 0
-6.1901345 5.7621069 1.8684471 0
-5.7525806 5.8274927 1.8237728 0
-5.5860381 5.8610253 1.7255808 0
6.3722744 5.7927065 1.8502606 0
6.4203119 5.8266563 1.8594605 0
-7.3149533 6.3304577 1.7845745 0
-6.9073262 6.2816443 1.7601109 0
-6.5353217 6.2397494 1.8719469 0
-6.1671219 6.2426505 1.7284887 0
-5.679646 6.1622806 1.7397656 0
-5.5854053 6.1586423 1.7227538 0
6.3728456 6.2051725 1.8091189 0
6.4213281 6.2007461 1.8297161 0
-7.3069711 6.4822469 1.8095915 0
-6.9193268 6.5840683 1.8680685 0
-6.4466667 6.56464 1.8443543 0
-6.1257343 6.6879807 1.7734627 0
6.3896561 6.5938635 1.8152142 0
6.4184141 6.5995555 1.8154716 0
-6.1052299 7.0371571 1.7683346 0
6.3916893 7.0663743 1.8541447 0
6.4108958 6.9673309 1.8362738 0
-6.4451666 7.3469343 1.8480439 0
-6.0880098 7.3869047 1.777066 0
6.3917027 7.4319897 1.809983 0
6.4167233 7.3862534 1.7995758 0
-7.1114883 7.9341464 1.8349539 0
-6.4663916 7.7742953 1.9429584 0
-6.134356 7.8092203 1.8249253 0
-5.82897 7.9236946 1.6894968 0
-5.2493839 7.9324231 1.7458863 0
-5.1822672 7.9455519 1.7857224 0
6.3918586 7.8174591 1.8287678 0
6.4240527 7.7896504 1.8815533 0
-7.2956862 8.1650133 1.8051187 0
-7.1796527 8.0167503 1.7958044 0
-6.2452335 8.0125732 1.9376246 0
-5.8580966 8.0350161 1.7208356 0
-5.228374 8.0136995 1.7849094 0
-5.1821947 8.0250034 1.7223921 0
6.3788075 8.1935863 1.8087744 0
6.4218731 8.2183323 1.8346285 0
-7.3175931 8.6320019 1.8160646 0
6.3772616 8.5830784 1.8294966 0
6.42031 8.6081409 1.9348483 0
-7.3168592 9.0486612 1.7956076 0
6.3784413 8.9406357 1.8502022 0
6.4141674 8.9857454 1.8945798 0
-7.3062882 9.4033585 1.8133013 0
6.3785005 9.3755426 1.8427367 0
6.4177742 9.3920431 1.8403395 0
-7.3131809 9.7617531 1.8677343 0
6.3778491 9.7966633 1.8702438 0
6.4179993 9.8658276 1.8864503 0
-7.2650337 10.229054 1.8013422 0
-7.0032921 10.315851 1.7760824 0
-6.5846448 10.309848 1.8036628 0
-6.2133555 10.314856 1.8056523 0
-5.8004575 10.323553 1.8008549 0
-5.3862052 10.323025 1.7489127 0
-4.9726787 10.321786 1.7515558 0
-4.5885992 10.328659 1.7523183 0
-4.1770358 10.328364 1.7507415 0
-3.7890141 10.324658 1.7521588 0
-3.3907478 10.329447 1.7551589 0
-2.9912815 10.325901 1.7607334 0
-2.5893261 10.330455 1.7665389 0
-2.1739476 10.33237 1.767585 0
-1.794475 10.328951 1.7777599 0
-1.3752869 10.328011 1.7794938 0
-1.0053409 10.326546 1.778652 0
-0.59133846 10.327725 1.7887795 0
-0.19465157 10.327365 1.7833698 0
0.18943685 10.327863 1.7799 0
0.62096053 10.331207 1.7870996 0
1.0044942 10.334927 1.7796326 0
1.3906294 10.335853 1.7836304 0
1.8050765 10.33849 1.7874165 0
2.2041311 10.336095 1.7919934 0
2.595669 10.338875 1.7901335 0
3.000572 10.339298 1.8041161 0
3.3960025 10.342803 1.8159312 0
3.7945652 10.345201 1.8139857 0
4.1991754 10.348793 1.7809628 0
4.6247611 10.349023 1.7623227 0
5.0251274 10.353098 1.7705781 0
5.3863068 10.348552 1.8226264 0
5.7740493 10.351772 1.8504447 0
6.2831993 10.250429 1.8434711 0
6.4078584 10.081096 1.8675809 0
-4.556447 10.420283 1.7719157 0
-4.0454807 10.424641 1.7671033 0
-3.7422934 10.454455 1.7738802 0
-3.4023771 10.477698 1.7770761 0
-2.9779973 10.486745 1.7801707 0
-2.5884254 10.557166 1.8045985 0
-2.2224774 10.536439 1.7095137 0
-1.8365012 10.581491 1.7753018 0
-1.4044384 10.565309 1.7679065 0
-0.028587818 10.41643 1.9961005 0
0.2403824 10.405491 1.8280916 0
0.53522378 10.407152 1.74023 0
0.97926617 10.41301 1.8127956 0
1.4576423 10.407484 1.6486771 0
1.7426646 10.427447 1.7719653 0
2.1491132 10.415778 1.809296 0
2.7723799 10.430969 1.855756 0
3.4551969 10.403769 1.8881972 0
3.9218833 10.421008 1.8425542 0
4.3151455 10.400536 1.9638612 0
4.7495289 10.411115 1.7369428 0
4.8670077 10.420527 1.8117108 0
5.3903313 10.402016 1.8231077 0
6.3269339 10.422766 1.8731606 0
-5.3581171 -10.407318 2.3003135 0
-4.5182796 -10.406869 2.3437326 0
-4.2097731 -10.416954 2.1804235 0
-3.8835566 -10.403171 2.2528033 0
-3.5055683 -10.400967 2.1727185 0
-2.8269887 -10.417936 2.0865571 0
-1.737646 -10.407164 2.1496291 0
-1.5597966 -10.414178 2.3234932 0
-1.0791807 -10.418488 2.2440739 0
-0.70223236 -10.409761 2.3177719 0
-6.5192623 -10.330148 2.1951118 0
-6.1889138 -10.338655 2.326932 0
-5.761838 -10.334198 2.2567575 0
-5.4040322 -10.33603 2.2130969 0
-4.9851851 -10.324964 2.1705911 0
-4.5712671 -10.331615 2.1664338 0
-4.1844144 -10.324953 2.1524115 0
-3.7882357 -10.325891 2.1579208 0
-3.3924665 -10.324315 2.1661217 0
-2.9751899 -10.317075 2.1684148 0
-2.5719829 -10.324057 2.1592021 0
-2.1824088 -10.316577 2.1591179 0
-1.7761704 -10.312382 2.1677256 0
-1.3788004 -10.308685 2.1764627 0
-0.97507584 -10.308274 2.1693041 0
-0.58125168 -10.317575 2.1756623 0
-0.18092048 -10.310269 2.191649 0
0.21527863 -10.313292 2.1968703 0
0.62618923 -10.315014 2.1844938 0
1.0260593 -10.316179 2.1776655 0
1.424821 -10.311127 2.2002797 0
1.8234519 -10.30833 2.1910195 0
2.2264905 -10.305005 2.1935604 0
2.6210172 -10.309235 2.1899459 0
3.0111296 -10.304281 2.1968625 0
3.406698 -10.300484 2.1613309 0
3.7960808 -10.294483 2.2138042 0
4.1726642 -10.28277 2.21083 0
4.5955458 -10.289556 2.2138419 0
5.0021057 -10.299229 2.2206123 0
5.371798 -10.288159 2.2528582 0
5.7658467 -10.281912 2.2191942 0
6.1881309 -10.254751 2.2464681 0
6.4411912 -10.167963 2.1762648 0
-6.4577131 -9.7046442 2.317317 0
-5.2397113 -9.8088017 2.1358585 0
-5.1628118 -9.8624401 2.1604288 0
-4.5272236 -9.7883072 2.1330996 0
-0.60893059 -9.9932041 2.12063 0
-0.17280972 -9.9424076 2.078615 0
0.16451108 -9.9763517 2.1605582 0
0.57724136 -9.9465179 2.1513393 0
1.0029826 -9.9183121 2.1626432 0
1.4425576 -9.8939886 2.1554136 0
1.8215543 -9.8672104 2.1275234 0
2.2729957 -9.8369265 2.15481 0
2.6509283 -9.7954016 2.1600716 0
3.0612123 -9.7730627 2.1517935 0
3.4992876 -9.7329865 2.1380911 0
3.8738916 -9.7309551 2.1503806 0
4.1956916 -9.7218733 2.2503588 0
4.5067191 -9.617527 2.2591066 0
5.507411 -9.6677608 2.1432538 0
5.768034 -9.6254702 2.241317 0
6.450285 -9.7728586 2.2440462 0
-6.4486299 -9.3955688 2.3092895 0
-5.2845359 -9.3908348 2.0483391 0
-4.620995 -9.5003958 2.0549757 0
5.8321128 -9.4987164 2.20838 0
6.0786552 -9.5931263 2.3600762 0
6.4494486 -9.3883867 2.2206275 0
-7.2635832 -8.966363 2.3205502 0
-6.9301291 -8.9271679 2.334002 0
-6.556221 -9.0017004 2.3005924 0
-6.1233573 -8.9066124 2.0718818 0
-5.8048735 -8.927146 2.0470347 0
-5.401237 -8.976922 2.0510468 0
-4.9669828 -8.9412441 2.0426779 0
-4.6838541 -9.0717735 2.0358877 0
2.3739285 -8.9460869 2.0506032 0
2.4135664 -9.002286 2.039655 0
4.3208151 -8.9648199 2.0338459 0
4.4349146 -8.9323664 2.0290432 0
6.4310422 -9.0406933 2.258558 0
-7.2710376 -8.6513453 2.3431377 0
-6.1878967 -8.5892649 2.0528173 0
2.3725061 -8.5917692 2.0351961 0
2.416759 -8.6184835 2.0389996 0
2.9764926 -8.5631685 2.0140805 0
4.3483286 -8.4371443 2.0383821 0
6.4425573 -8.565074 2.2302902 0
-7.2487969 -8.2207842 2.3374093 0
-7.1767426 -8.2055445 2.3388734 0
-6.5407424 -8.3286209 2.0859628 0
-6.2693691 -8.348423 2.0579963 0
2.3630221 -8.298521 2.04707 0
2.4144645 -8.2538891 2.040602 0
2.9593906 -8.1609697 2.0353975 0
4.3359361 -8.2566299 2.0427375 0
6.26546 -8.2979097 2.1030738 0
6.4294767 -8.1575394 2.1697423 0
-7.272543 -7.6763964 2.3903227 0
-6.4572139 -7.6517553 2.089951 0
2.9582055 -7.7602429 2.052963 0
6.386549 -7.9711442 2.1812036 0
6.4455934 -7.80656 2.1373117 0
7.0307255 -7.6823883 2.2135088 0
-7.2807794 -7.4887748 2.3848307 0
-6.4545579 -7.4740815 2.0637977 0
-6.3877525 -7.5214977 2.0706422 0
6.4533892 -7.4474335 2.1313925 0
7.0134492 -7.3310018 2.1138437 0
-7.2783937 -6.9929352 2.350291 0
-6.4732337 -7.0038314 2.0546269 0
2.3650069 -7.0023723 2.0268509 0
2.4112391 -7.1775436 2.0162876 0
4.327991 -7.12747 2.0298808 0
6.3144689 -7.0618792 2.1195226 0
6.4662309 -6.9407892 2.2384171 0
7.004077 -7.0127392 2.0501766 0
-7.2997408 -6.6321206 2.3687685 0
2.3675237 -6.6281581 2.0227633 0
2.4277835 -6.6144967 2.0053759 0
4.3096395 -6.5329189 2.0252614 0
6.360508 -6.6527743 2.1426899 0
6.461915 -6.5839272 2.229053 0
-7.283391 -6.2930365 2.3654382 0
-6.8877792 -6.2236195 2.2073839 0
-6.2269688 -6.1589408 2.1603062 0
-5.3262563 -6.1135859 2.1769297 0
2.368032 -6.3210521 2.0231869 0
2.4144356 -6.3333054 2.0277596 0
2.8468339 -6.2087975 2.0183148 0
4.3160625 -6.3332787 2.0259123 0
4.8362951 -6.1761732 2.0094891 0
6.3196249 -6.35958 2.137805 0
6.4442101 -6.1900749 2.2120128 0
-7.2834544 -5.7100034 2.2266364 0
-6.8721251 -5.657608 2.3256402 0
-6.6112919 -5.6530089 2.2519524 0
-6.2105198 -5.6957622 2.19052 0
-5.799273 -5.6740265 2.1889148 0
-5.4016356 -5.7467952 2.1629267 0
2.7996676 -5.930572 2.004446 0
2.8039215 -5.8743143 2.0108502 0
6.3840647 -5.7134752 2.3205945 0
6.4386992 -5.8091207 2.1858432 0
-7.2705092 -5.5245423 2.1301656 0
-7.090157 -5.4178123 2.2717147 0
-6.6137104 -5.4501224 2.2185488 0
-6.2956872 -5.3997436 2.068099 0
-5.2570381 -5.4323649 2.1385953 0
-5.1682868 -5.394958 2.1416082 0
2.3620861 -5.2492371 2.0283356 0
2.4080374 -5.2454042 2.0156348 0
4.3061419 -5.2346435 2.0367761 0
6.2026567 -5.2028284 2.0694907 0
6.4388514 -5.4097586 2.2215486 0
6.8700686 -5.3431354 2.3779824 0
-7.2804179 -4.9703784 2.3555779 0
-6.2106214 -5.0129108 2.0217373 0
2.3646789 -4.999177 2.0296893 0
2.4246726 -5.0343461 2.0288005 0
4.3250494 -5.0352936 2.0439749 0
6.211966 -5.132246 2.0786896 0
6.435605 -4.9673619 2.1168458 0
6.8763933 -5.0646954 2.2026279 0
-7.2872906 -4.6253734 2.3541961 0
-6.134644 -4.5968347 2.0160952 0
-5.7260027 -4.4790649 2.0056601 0
2.3622124 -4.5413885 2.0321012 0
2.6113691 -4.5059228 2.0374529 0
4.3100719 -4.557303 2.0287905 0
4.7297859 -4.6131163 2.0867095 0
6.3892927 -4.6176581 2.1805735 0
6.4462423 -4.6176224 2.1906278 0
-7.2789364 -4.2687168 2.3475823 0
-5.7178345 -4.2350836 2.0113189 0
2.370894 -4.3784356 2.0354042 0
2.5700884 -4.2892895 2.0432315 0
4.677949 -4.3889751 2.0497632 0
6.368371 -4.2125854 2.1520488 0
6.4305096 -4.1693549 2.176713 0
-7.278543 -3.7988493 2.1534572 0
-6.5231256 -3.7824883 2.3305871 0
-6.2361412 -3.7044697 2.2445118 0
-5.7259994 -3.8549271 2.0081015 0
2.696197 -3.9175801 2.029901 0
4.6640925 -3.9176068 2.0288687 0
6.3816333 -3.8111386 2.1592288 0
6.4336538 -3.7924042 2.1893191 0
-6.2043271 -3.3996758 2.2385678 0
-5.7305031 -3.4043543 2.006592 0
2.3614469 -3.366188 2.0150011 0
2.4095271 -3.4173169 2.0240078 0
4.3219352 -3.4015791 2.04164 0
6.3627086 -3.3543372 2.166671 0
6.4403844 -3.4335063 2.2002373 0
-6.1571794 -3.0574458 2.2641366 0
-5.7434058 -2.9515574 2.1309898 0
2.3614233 -3.0080485 2.0138352 0
2.4836597 -2.9245269 2.0122664 0
4.3498573 -2.9678926 2.0327885 0
6.3218045 -3.0014811 2.1399672 0
6.4881749 -2.9672258 2.1942558 0
-6.2155704 -2.6014867 2.1851087 0
-5.7187676 -2.5906241 2.1459622 0
2.3621249 -2.6725152 2.014986 0
2.4157283 -2.6260018 2.021728 0
4.293148 -2.6617115 2.0316925 0
6.3326559 -2.5864394 2.1614473 0
6.4987898 -2.6186953 2.1898565 0
-7.3010306 -2.2843711 2.1329463 0
-6.5304832 -2.2934995 2.1528635 0
-6.1882586 -2.2262151 2.2304077 0
-5.7942662 -2.2925389 2.1719184 0
-5.5870042 -2.041326 2.020767 0
4.524188 -2.1116023 2.0118883 0
6.3837447 -2.2117975 2.1385486 0
6.5620613 -2.1530538 2.1686263 0
-7.3005514 -1.654934 2.2726545 0
-6.5099945 -1.7303593 2.0981352 0
-6.3720145 -1.7032583 2.1828353 0
-5.6490774 -1.8625324 2.0142591 0
2.3665504 -1.6512985 2.0127263 0
4.2883787 -1.6214799 2.022325 0
6.3583708 -1.794885 2.2045872 0
6.4644947 -1.7961582 2.1817257 0
-6.8259788 -1.2004073 2.20403 0
-6.4574509 -1.3643246 2.1695971 0
-6.3691835 -1.4228444 2.1934035 0
-5.1767979 -1.2253835 2.1175349 0
2.3577325 -1.4023118 2.0150254 0
4.3041573 -1.4999092 2.0121248 0
6.2427244 -1.4244111 2.0751486 0
6.4358225 -1.376248 2.2339606 0
-7.2671323 -1.0546277 2.1014814 0
-7.0800314 -1.0543942 2.1339865 0
-6.5665412 -0.92296207 2.2006977 0
-6.2490339 -0.92438775 2.136894 0
-5.2345848 -1.0736688 2.1249363 0
-5.1749701 -1.0755628 2.1686978 0
2.3645701 -0.94896215 2.0175114 0
2.4068446 -1.1240659 2.014576 0
4.3292656 -0.86967838 2.0350063 0
6.3348331 -0.95501351 2.1218524 0
6.4279733 -0.9649322 2.1848705 0
-7.2681866 -0.71326876 2.1636662 0
-6.077868 -0.56364745 2.1871736 0
2.3588157 -0.77935386 2.0320678 0
6.378849 -0.59518236 2.2288206 0
6.4298429 -0.56123984 2.2215009 0
-6.5279326 -0.16767627 2.167016 0
-6.1782618 -0.34279996 2.1882315 0
6.3702326 -0.25809607 2.2044723 0
6.446702 -0.19975965 2.2118986 0
-7.2754374 0.39461696 2.1411748 0
-6.5163307 0.19298266 2.129905 0
-6.3337855 0.38834524 2.2199199 0
2.358547 0.21658814 2.0306437 0
2.4123824 0.22781451 2.039736 0
2.9297094 0.38528347 2.0052929 0
4.2964678 0.26823527 2.0369925 0
6.2929983 0.21724366 2.1237206 0
6.4479222 0.19810368 2.2039335 0
-7.2856922 0.44846675 2.1425896 0
-6.5466347 0.42762399 2.1498165 0
-6.2303133 0.55764902 2.2128942 0
-5.784544 0.52755231 2.0104263 0
2.361994 0.58859372 2.0324273 0
4.2898798 0.57867199 2.0240967 0
6.3552418 0.62585789 2.1473105 0
6.4303775 0.61477435 2.2286968 0
-7.2982626 1.0756054 2.274915 0
-6.5590215 1.1392498 2.2584398 0
-6.2405567 1.0115685 2.2469554 0
-5.7696366 1.0743369 2.0233104 0
2.3627532 0.93707341 2.0270064 0
2.4322107 0.98463684 2.0168197 0
4.2967958 0.92902547 2.0298405 0
6.2770467 0.99400812 2.0876327 0
6.4280124 0.99389982 2.209415 0
-7.2989945 1.4600656 2.2325618 0
-5.7368255 1.3308755 2.0132358 0
6.3782897 1.4219048 2.2117827 0
6.4232979 1.4463221 2.2029662 0
-7.3474112 1.6843629 2.3043635 0
-6.1130981 1.9857645 2.1474469 0
-5.7334404 1.7255639 2.0160787 0
6.3771009 1.7808292 2.2198579 0
6.4193511 1.8165219 2.1952689 0
-6.5768385 2.050097 2.3416877 0
-6.1337991 2.1602209 2.1928623 0
-5.9564185 2.0099916 2.2142508 0
6.3776336 2.2359483 2.2352135 0
6.4286404 2.207412 2.2165704 0
-6.4599051 2.6776769 2.2496195 0
-6.0926881 2.5831823 2.133204 0
6.3508439 2.6249852 2.1956041 0
6.4208422 2.600507 2.1791418 0
-6.9932466 3.1985321 2.3567286 0
-6.5362301 3.0333793 2.2649367 0
-6.073585 3.0317397 2.0539765 0
6.3618455 3.0007546 2.1307006 0
6.4186559 3.0322342 2.1325071 0
-7.2961583 3.341213 2.1582055 0
-6.9327531 3.2980447 2.2225628 0
-6.5351286 3.4373186 2.2666047 0
-6.2409101 3.4353874 2.1226909 0
-5.7878785 3.5479386 2.0184085 0
-5.2428637 3.3730109 2.1773505 0
-5.1767769 3.4089446 2.1535029 0
6.3641477 3.4345529 2.1831241 0
6.4270086 3.4233763 2.1069436 0
-6.5298171 3.6234887 2.2278545 0
-6.2372208 3.7645819 2.2112041 0
-5.7792172 3.7695377 2.0160999 0
6.3274031 3.8498755 2.1207216 0
6.4199166 3.8150115 2.1201038 0
-6.2279158 4.196002 2.2623906 0
-5.7289381 4.1140437 2.0168014 0
6.3531466 4.2106171 2.1461444 0
6.4249039 4.2308388 2.1577692 0
-6.2294917 4.6170759 2.2824154 0
-5.742116 4.6547627 2.0166967 0
6.342308 4.6201148 2.1453991 0
6.4186301 4.6208916 2.1414247 0
-7.3175273 5.0066485 2.1726124 0
-6.634829 5.0457158 2.0228837 0
-6.2336698 4.9598398 2.2816892 0
-5.7403245 4.9597974 2.0135603 0
6.3303609 5.037919 2.1602552 0
6.4202852 5.0398073 2.1792204 0
-7.3070374 5.3510065 2.164573 0
-6.9049487 5.2766647 2.0949368 0
-6.4499784 5.3721237 2.1134827 0
-6.3847251 5.4521666 2.2403128 0
6.3462582 5.3966894 2.1684382 0
6.418385 5.4152756 2.1840019 0
-6.413939 5.8111691 2.2504921 0
-6.3088989 5.8323154 2.1254539 0
-5.7445374 5.7951941 2.0212905 0
6.3787646 5.7937708 2.1788664 0
6.4173303 5.8129559 2.2067108 0
-7.3265796 6.3340364 2.1016114 0
-6.8268032 6.2465787 2.0343759 0
-6.4225631 6.0987544 2.2874112 0
-6.3780141 6.1542964 2.2933125 0
-5.6524267 6.1408844 2.0083594 0
6.3747935 6.233839 2.1883409 0
6.42208 6.1751556 2.1854885 0
-7.316041 6.485631 2.09706 0
-6.9654989 6.5841517 2.1313934 0
-6.5239048 6.5950522 2.256695 0
-6.2093506 6.630363 2.2457874 0
6.3762984 6.6325421 2.1643097 0
6.4124374 6.6043811 2.200773 0
-6.0902143 6.9991813 2.2355525 0
6.3834891 7.0430746 2.1783502 0
6.418859 6.9907031 2.1868424 0
-6.5226812 7.5338826 2.2668021 0
-6.0769405 7.4471936 2.0602934 0
6.3878937 7.4030461 2.181973 0
6.4168892 7.4004717 2.1984305 0
-7.1488619 7.9761066 2.0258663 0
-6.4822478 7.7781339 2.1206331 0
-6.1277127 7.710043 2.0616798 0
-5.72153 7.8934054 2.1924136 0
-5.2515626 7.9358058 2.1444263 0
-5.180758 7.9451528 2.1822824 0
6.3874121 7.8275099 2.1877685 0
6.4118385 7.784739 2.1717677 0
-7.2818913 8.1698637 2.1173213 0
-7.1739831 8.0155725 2.0313406 0
-6.5602684 8.0113916 2.1572199 0
-5.6404271 8.0142469 2.3540373 0
-5.2386656 8.0282221 2.1377978 0
-5.1799827 8.0162945 2.2382631 0
6.383625 8.2238026 2.1707969 0
6.4219856 8.1935625 2.1845403 0
-7.3224344 8.6406689 2.2169061 0
6.3842926 8.6141853 2.2073081 0
6.4131136 8.6039543 2.1973348 0
-7.3261971 8.9582729 2.2363043 0
6.3887796 9.0023308 2.1920352 0
6.419179 8.9947739 2.1940389 0
-7.32477 9.4472799 2.2175684 0
6.37677 9.3794918 2.1977599 0
6.408226 9.3799706 2.1791079 0
-7.3123331 9.8101597 2.171531 0
6.3832154 9.7910824 2.1800702 0
6.4160728 9.8154306 2.1707535 0
-7.2650595 10.192225 2.1647151 0
-6.9619999 10.308577 2.2047379 0
-6.5858316 10.308655 2.1871595 0
-6.1735315 10.313936 2.1923192 0
-5.807673 10.32545 2.1605499 0
-5.3793569 10.321785 2.1735024 0
-4.9843731 10.327124 2.1675837 0
-4.587091 10.329042 2.1711414 0
-4.1667261 10.32338 2.1642969 0
-3.7821422 10.331779 2.1778059 0
-3.3889742 10.333927 2.1899269 0
-3.0084484 10.330099 2.1692207 0
-2.5943429 10.329768 2.1879466 0
-2.1798389 10.332445 2.1692314 0
-1.7945089 10.333091 2.1772022 0
-1.388693 10.332582 2.1781814 0
-0.99468589 10.328302 2.1941168 0
-0.57888019 10.331528 2.1894295 0
-0.17911287 10.33438 2.1888306 0
0.21205518 10.335269 2.1903131 0
0.60231203 10.335894 2.1942568 0
1.0045096 10.337003 2.178582 0
1.3991082 10.341223 2.1834972 0
1.8064348 10.336387 2.1829374 0
2.2055647 10.335727 2.1765978 0
2.6163378 10.341899 2.171808 0
3.0025854 10.339357 2.1767128 0
3.4019265 10.341555 2.1890085 0
3.7944465 10.346588 2.2044978 0
4.1933637 10.345117 2.1962104 0
4.5876093 10.350551 2.2029245 0
4.9993682 10.351664 2.1999679 0
5.3962197 10.346312 2.2324936 0
5.8178134 10.349004 2.1968558 0
6.275105 10.27107 2.1618419 0
6.4364891 10.137838 2.1354306 0
-4.4364462 10.421246 2.1557114 0
-4.0914774 10.411421 2.1840627 0
-3.740587 10.437195 2.1585772 0
-3.4066305 10.477227 2.167886 0
-2.9829097 10.492959 2.1747127 0
-2.6269267 10.514339 2.2463682 0
-2.1741939 10.530384 2.2474287 0
-1.790781 10.611064 2.1481948 0
-1.442996 10.630915 2.1616163 0
-0.81802487 10.414981 2.0302119 0
-0.63693976 10.403576 2.3554413 0
-0.19331495 10.411395 2.2241955 0
1.3770299 10.404528 2.2270751 0
1.7399199 10.430069 2.3881254 0
2.2393446 10.410906 2.3883252 0
2.6039047 10.414842 2.1112847 0
3.032244 10.407556 2.355397 0
3.4950948 10.407873 2.1644733 0
3.9095657 10.410212 2.2526519 0
4.1246858 10.422869 2.3102589 0
4.6143355 10.409782 2.2363865 0
4.9233556 10.418656 2.2438536 0
5.3654156 10.405147 2.1342659 0
5.6045666 10.403804 2.1991987 0
6.1096621 10.407836 2.2288034 0
-5.4066305 -10.41261 2.6030822 0
-4.9317584 -10.402449 2.5843613 0
-4.1937742 -10.416074 2.6114314 0
-3.7863302 -10.414233 2.6098096 0
-3.1030891 -10.406168 2.6021755 0
-2.1388483 -10.412942 2.5489995 0
-1.773715 -10.411861 2.6919751 0
-1.1389461 -10.404503 2.6372066 0
-0.060601234 -10.40996 2.7769451 0
-6.8946815 -10.322726 2.6483526 0
-6.5815773 -10.322478 2.5687931 0
-6.1544967 -10.319367 2.5457168 0
-5.7601557 -10.317637 2.5558488 0
-5.3765264 -10.331347 2.5302155 0
-4.986227 -10.324618 2.562964 0
-4.5976872 -10.332227 2.5507851 0
-4.191062 -10.326439 2.5463517 0
-3.7886987 -10.3275 2.5502729 0
-3.3959348 -10.322928 2.5644886 0
-2.9784241 -10.319771 2.556736 0
-2.5751967 -10.323456 2.5532846 0
-2.1764295 -10.313887 2.5527539 0
-1.7800754 -10.315299 2.5537922 0
-1.3749875 -10.311694 2.5682738 0
-0.96370322 -10.30989 2.5685601 0
-0.58267146 -10.315473 2.5701203 0
-0.18212061 -10.310044 2.5680728 0
0.21513332 -10.317919 2.5849473 0
0.61315453 -10.315674 2.5758939 0
1.0235695 -10.312921 2.5822074 0
1.418476 -10.311439 2.5873368 0
1.8261951 -10.310396 2.5797045 0
2.2424126 -10.303787 2.5846515 0
2.6290984 -10.307137 2.5925188 0
3.0130439 -10.309369 2.604115 0
3.416738 -10.313449 2.6320002 0
3.8059716 -10.304483 2.6097908 0
4.2307172 -10.304597 2.5633802 0
4.6359596 -10.299969 2.5726817 0
5.0331712 -10.294733 2.5995023 0
5.4092827 -10.290774 2.6178563 0
5.8038168 -10.282872 2.5882831 0
6.2808614 -10.270558 2.6580017 0
6.4374013 -10.125852 2.6539063 0
-7.2854238 -9.7823763 2.7356458 0
-7.0612578 -9.7853308 2.7090502 0
-6.5322332 -9.8043556 2.6113276 0
-6.1880002 -9.8357067 2.6352909 0
-5.7737651 -9.8528128 2.6384318 0
-5.322063 -9.8545113 2.5835414 0
-5.1271482 -9.8782606 2.6019225 0
-4.5351152 -9.8448429 2.5688624 0
-0.88017678 -9.9918528 2.5207911 0
-0.56246257 -9.9795828 2.4879224 0
-0.18760712 -9.9618263 2.5743167 0
0.20712526 -9.9508505 2.5894973 0
0.62777603 -9.9363174 2.5512486 0
1.0168707 -9.9176207 2.577168 0
1.4105902 -9.872263 2.593354 0
1.8499399 -9.8586369 2.5388291 0
2.2418182 -9.8396883 2.5790279 0
2.6868186 -9.7960901 2.52 0
3.0900698 -9.7783432 2.5540798 0
3.4682496 -9.7561178 2.5581203 0
3.8684254 -9.7202978 2.5680065 0
4.2588072 -9.7208309 2.6005135 0
4.6807733 -9.6560831 2.5827281 0
5.025928 -9.6536369 2.602278 0
5.3983436 -9.6562405 2.6002986 0
5.7205496 -9.6425676 2.6099253 0
6.3942332 -9.6072922 2.755358 0
6.452599 -9.818224 2.6335597 0
-7.2790365 -9.3825178 2.7297816 0
-6.4477711 -9.4274855 2.4643903 0
-6.3942242 -9.5745306 2.5584357 0
5.3305535 -9.557107 2.4795907 0
5.8936501 -9.5258026 2.5355673 0
6.1553764 -9.5379791 2.5389211 0
6.4461737 -9.3954849 2.6367691 0
-7.2672944 -9.0175714 2.5783834 0
-6.9213929 -8.9233236 2.4829872 0
-6.542809 -8.9924765 2.4713635 0
6.4461746 -9.0216017 2.6274021 0
-7.2700415 -8.5827265 2.5727367 0
6.396894 -8.5239286 2.6925714 0
6.4411235 -8.6307945 2.6154399 0
7.0792999 -8.4981089 2.7582273 0
-7.2569332 -8.268939 2.6004825 0
-7.1711664 -8.2039299 2.4185052 0
6.4438295 -8.2271585 2.6555734 0
7.0374413 -8.1305571 2.7337048 0
-7.2495222 -7.7774076 2.4880588 0
6.4561825 -7.7041306 2.5946341 0
7.0479126 -7.7752533 2.6456852 0
-7.2714114 -7.4219346 2.5082452 0
6.3844986 -7.380971 2.6818981 0
6.4577069 -7.4047346 2.6334193 0
7.0534997 -7.4271259 2.469979 0
-7.2719655 -7.0419717 2.4272568 0
6.3919539 -6.9777179 2.7564459 0
6.4480677 -6.9737935 2.6417148 0
-7.2806573 -6.5912614 2.458456 0
6.3885803 -6.5954347 2.6089084 0
6.4500294 -6.5994973 2.6028373 0
-7.2766218 -6.2223768 2.5635087 0
-5.326097 -6.1081624 2.4435351 0
6.441844 -6.1809797 2.6017256 0
6.8992958 -6.0463867 2.6352897 0
-7.2724452 -5.8308301 2.6694293 0
-6.9272084 -5.6591163 2.4893517 0
-6.5997128 -5.6509752 2.4632902 0
-6.1630311 -5.6586342 2.4585044 0
-5.7948632 -5.6741662 2.4421151 0
-5.4043026 -5.7633448 2.4355867 0
6.4354362 -5.8132625 2.5935335 0
6.8772745 -5.7623501 2.5635433 0
-7.2627249 -5.2999811 2.6265285 0
-7.0359387 -5.3857751 2.569366 0
-6.6340942 -5.461184 2.5673151 0
-6.149826 -5.450036 2.5613806 0
-5.8504939 -5.4645667 2.5690572 0
-5.3406901 -5.423759 2.550195 0
-5.1681414 -5.3759084 2.5697467 0
6.3872528 -5.4102197 2.6261969 0
6.440906 -5.4090629 2.6054499 0
6.8861666 -5.4782028 2.5131693 0
-7.2771792 -4.9782825 2.5764911 0
6.4630895 -5.0205417 2.6166594 0
6.8656921 -5.0107622 2.5784798 0
-7.2764063 -4.5726581 2.5611939 0
6.4355021 -4.6287622 2.6302967 0
6.8413239 -4.7020779 2.5290363 0
-7.2744598 -4.240984 2.5033951 0
6.3793006 -4.1256466 2.5680833 0
6.4297009 -4.1574454 2.6320317 0
-7.2834377 -3.8264377 2.5548968 0
6.3897028 -3.8296509 2.6535499 0
6.4316673 -3.7996433 2.6212521 0
-7.2839727 -3.4940856 2.6095173 0
6.3925538 -3.5478497 2.5569458 0
6.434195 -3.3904402 2.6149449 0
-7.28125 -2.9065557 2.7146435 0
-6.6343746 -3.0182803 2.5553105 0
-6.2401175 -2.9613833 2.5451369 0
6.3859372 -2.9982712 2.5896068 0
6.4815269 -3.0073421 2.582932 0
-7.2840695 -2.7370446 2.7263522 0
-6.204309 -2.5657914 2.5371368 0
6.3864808 -2.5542626 2.5894947 0
6.4935894 -2.6177938 2.6392608 0
-6.4476943 -2.3314805 2.5545244 0
-6.2152939 -2.3316302 2.5289872 0
6.3873715 -2.1573608 2.6197267 0
6.4910851 -2.1915503 2.5892849 0
-6.5478101 -1.696445 2.6144135 0
-6.3815036 -1.6689854 2.5019474 0
6.3828444 -1.8240151 2.5922003 0
6.5023446 -1.7693502 2.6144352 0
-6.4070873 -1.5650806 2.5553596 0
-6.3733578 -1.398726 2.5066459 0
6.3677483 -1.3607944 2.5927851 0
6.4249783 -1.3985978 2.6281869 0
-6.9358535 -1.0088127 2.6195121 0
-6.5927444 -0.90356129 2.5156507 0
-6.1742992 -0.95452744 2.5375586 0
-5.7947068 -1.0517515 2.5969737 0
-5.3205595 -1.0439454 2.6012249 0
-5.1748123 -1.0795993 2.5413613 0
6.3726473 -0.97442973 2.6046238 0
6.425941 -1.0032172 2.5818093 0
-7.2851572 -0.52709609 2.6764464 0
-6.5633631 -0.55497468 2.58202 0
-6.0788331 -0.58465815 2.4662189 0
6.3575759 -0.57250929 2.6058557 0
6.4291968 -0.61218035 2.5870121 0
-7.2990417 -0.15088931 2.7083945 0
-6.9011345 -0.30019426 2.5498459 0
-6.5953069 -0.2955856 2.4680145 0
-6.1253796 -0.33762571 2.4485087 0
6.3676291 -0.11200184 2.5611136 0
6.4365034 -0.21820575 2.5948007 0
-7.2889042 0.17866936 2.71524 0
-6.5189552 0.21417533 2.4279127 0
6.3926725 0.22192287 2.6528261 0
6.4370298 0.18648207 2.5820653 0
-7.3065538 0.60764879 2.6774852 0
-6.578126 0.45018768 2.4039106 0
-6.2777948 0.5827384 2.4161718 0
6.3882017 0.52327508 2.5618157 0
6.4267941 0.61243451 2.5602825 0
-7.3039608 1.0110393 2.6443696 0
-6.2346511 0.94948149 2.4004128 0
6.3891821 1.0484993 2.5313809 0
6.4206114 0.98296958 2.5533454 0
-7.2899957 1.4294513 2.6168828 0
6.3936963 1.4026983 2.589988 0
6.4162941 1.4280515 2.599844 0
-7.3015671 1.8402385 2.7719564 0
-6.8365355 1.993063 2.5756063 0
6.3919029 1.7743837 2.5909498 0
6.4173932 1.8254251 2.5950341 0
-7.2967553 2.2060857 2.7136714 0
-6.8986139 2.0560398 2.5371397 0
-6.6115627 2.0708711 2.5307958 0
-6.1770611 2.1126823 2.4709244 0
6.3780146 2.3203816 2.6040916 0
6.4211993 2.2036438 2.5641749 0
-7.2946887 2.4342337 2.7625995 0
-6.0855727 2.5414405 2.4669259 0
6.3784099 2.6542976 2.5996881 0
6.4227462 2.6040778 2.5866582 0
-6.5410743 3.0867729 2.4564629 0
6.3656278 3.0612328 2.5947649 0
6.4190464 3.020344 2.5879407 0
-6.9615173 3.4346523 2.5530357 0
-6.5624566 3.4920356 2.554667 0
-6.1997242 3.4340525 2.5990341 0
-5.8167872 3.3912611 2.6356387 0
-5.3213501 3.3764515 2.5759981 0
-5.1752257 3.4256303 2.5890644 0
6.3523078 3.4316113 2.6098607 0
6.4117303 3.3921361 2.6106262 0
-7.2946229 3.8135483 2.6147206 0
-6.4305544 3.6066051 2.4928687 0
-6.238081 3.8085384 2.5316694 0
6.3234663 3.816005 2.5832951 0
6.4127331 3.8246336 2.5759823 0
-7.3072791 4.2751212 2.6663234 0
-6.2244248 4.1664357 2.5511637 0
6.3498802 4.1912584 2.576416 0
6.4128194 4.2013278 2.5755463 0
-7.3021507 4.6254978 2.7025733 0
6.3213673 4.6454253 2.5721526 0
6.4156361 4.6527324 2.574116 0
-7.2986412 4.9771123 2.725172 0
6.3440042 5.0396914 2.572437 0
6.4168277 5.0832205 2.5468543 0
-7.2971025 5.3602347 2.7577982 0
6.3457212 5.3957481 2.5772762 0
6.4179525 5.4227405 2.5299072 0
-7.2943239 5.8583741 2.7694652 0
-6.8957844 5.7783637 2.6557002 0
-6.5284734 5.8207054 2.6223786 0
-6.3853693 5.8953624 2.5802062 0
6.3771472 5.8103275 2.5483642 0
6.419189 5.8195052 2.5342464 0
-7.3269172 6.0955782 2.7826667 0
-6.4169788 6.1684561 2.5880272 0
-6.3828492 6.1675882 2.5853899 0
6.3725352 6.2020707 2.5784016 0
6.4166532 6.2091093 2.5549004 0
-7.288806 6.6304436 2.5834718 0
-6.9078269 6.6024456 2.5063982 0
-6.531507 6.6455536 2.5177412 0
-6.184607 6.6338596 2.4704218 0
6.37325 6.6388545 2.5786648 0
6.4159532 6.6367064 2.6167769 0
-6.5773387 6.9407487 2.6413078 0
-6.0976887 6.9849434 2.4663162 0
6.3896151 7.0490603 2.6185038 0
6.417305 6.9979372 2.5967414 0
-6.5313077 7.5473471 2.4191251 0
-6.0851555 7.2176647 2.5245681 0
6.3868895 7.4146256 2.5793126 0
6.4142647 7.4079046 2.6041276 0
-7.2440605 7.9076729 2.6793399 0
-6.9248796 7.9474988 2.6256678 0
-6.5254927 7.8997016 2.5884082 0
-6.1849084 7.9274278 2.6323702 0
-5.8017526 7.92943 2.6301777 0
-5.3556328 7.9339724 2.5900733 0
-5.1773677 7.9480343 2.5953951 0
6.3845992 7.805932 2.5629883 0
6.4149671 7.7980032 2.6157498 0
-7.3049617 8.3128738 2.5914571 0
-6.9243569 8.009264 2.4069901 0
-6.7844195 8.0061979 2.5502977 0
-6.1497669 8.0050421 2.588119 0
-5.8717885 8.0395966 2.6035857 0
-5.3560476 8.0344868 2.6003764 0
-5.1688251 8.0128918 2.5140042 0
6.3855176 8.1991224 2.6087637 0
6.4158058 8.217576 2.5839555 0
-7.3192902 8.5847378 2.5129271 0
6.3837271 8.5935488 2.5708468 0
6.4191241 8.6102343 2.5961053 0
-7.3223162 9.0332899 2.5372953 0
6.3846111 8.9792051 2.5812945 0
6.418097 9.0123014 2.5561454 0
-7.3097339 9.4464664 2.5883899 0
6.3807664 9.4117851 2.5794652 0
6.4143586 9.4237509 2.6197393 0
-7.318512 9.8322992 2.6113868 0
6.380444 9.8000689 2.5869877 0
6.4143643 9.8503332 2.6013598 0
-7.2806482 10.202312 2.6212735 0
-6.9990702 10.300241 2.5741956 0
-6.5848994 10.316837 2.6238954 0
-6.2045436 10.319587 2.5732789 0
-5.7958093 10.326598 2.5822563 0
-5.3767471 10.326908 2.5829294 0
-4.9934082 10.324492 2.5947652 0
-4.6047468 10.329944 2.5791922 0
-4.1777959 10.330903 2.5817964 0
-3.8039675 10.32919 2.5817924 0
-3.41379 10.331029 2.5766735 0
-2.994463 10.330102 2.5837791 0
-2.6043775 10.331074 2.5937138 0
-2.1998963 10.333174 2.5785587 0
-1.7876554 10.337955 2.5815341 0
-1.3870596 10.332373 2.5799286 0
-1.0016304 10.335073 2.5888333 0
-0.5978139 10.332685 2.5854905 0
-0.18770018 10.339192 2.5745752 0
0.20126058 10.337014 2.5857732 0
0.60158813 10.340963 2.5920877 0
0.99415404 10.33823 2.5830224 0
1.3931187 10.339626 2.5811429 0
1.8041235 10.333922 2.5787706 0
2.2120807 10.341101 2.5715904 0
2.6079421 10.339832 2.5795224 0
3.0034897 10.341037 2.5725713 0
3.4075291 10.343215 2.5914335 0
3.816659 10.344603 2.5893261 0
4.2050252 10.343407 2.5836971 0
4.608707 10.347873 2.5820134 0
5.0147638 10.346309 2.6032305 0
5.4242225 10.346541 2.5800409 0
5.8074851 10.345913 2.600095 0
6.2502956 10.277845 2.5987246 0
6.426229 10.123499 2.6785445 0
-7.2862248 10.436525 2.6354437 0
-4.4271603 10.425777 2.5978038 0
-4.0477767 10.418602 2.5375214 0
-3.7432022 10.442543 2.6256034 0
-3.3591247 10.466306 2.5525897 0
-2.9615669 10.477952 2.5774398 0
-2.6098764 10.483497 2.6638558 0
-2.1908975 10.520861 2.5926256 0
-1.7907228 10.54382 2.6189337 0
-1.4483435 10.564237 2.6292048 0
-0.92676926 10.677798 2.7193656 0
-0.56498981 10.415174 2.6253757 0
-0.20442516 10.411852 2.6867242 0
0.46707451 10.415768 2.6603241 0
1.3258126 10.428088 2.5803289 0
1.8593374 10.41397 2.5910358 0
2.2167244 10.402145 2.647424 0
3.0181689 10.442511 2.7147584 0
3.5981057 10.403305 2.521606 0
3.8513329 10.401756 2.4190552 0
4.4647985 10.413511 2.5434911 0
4.8422937 10.420593 2.5268557 0
5.5179305 10.413459 2.5763755 0
5.9024229 10.421699 2.7094173 0
6.1123743 10.416493 2.6227763 0
-5.842804 -10.41049 3.1896737 0
-5.4661875 -10.404246 3.1854076 0
-4.0654159 -10.406956 3.1496611 0
-3.3785 -10.405462 2.9875522 0
-2.9672639 -10.403391 2.8086247 0
-1.6816239 -10.41306 2.903264 0
0.48696327 -10.417364 2.8855317 0
1.229986 -10.400833 2.9311938 0
1.6007705 -10.410257 2.9057417 0
-7.2511506 -10.270723 3.0635512 0
-6.9881978 -10.300614 2.9823859 0
-6.5830941 -10.313176 3.0119691 0
-6.1901226 -10.326607 2.9990985 0
-5.7786393 -10.330644 3.0072694 0
-5.395318 -10.336294 2.9703543 0
-4.9920397 -10.331847 2.9575109 0
-4.5993252 -10.332683 2.9397974 0
-4.1898713 -10.329595 2.9513845 0
-3.7921164 -10.32715 2.9511871 0
-3.3989327 -10.323211 2.956512 0
-2.982002 -10.321814 2.9600139 0
-2.5785906 -10.322086 2.9506285 0
-2.183984 -10.3179 2.9574859 0
-1.7808878 -10.310104 2.9495442 0
-1.3734857 -10.310413 2.9592624 0
-0.97356004 -10.306166 2.9660943 0
-0.57763493 -10.314714 2.9622116 0
-0.18185604 -10.307675 2.9573407 0
0.21191816 -10.314116 2.9612646 0
0.61788464 -10.314712 2.9599111 0
1.0241592 -10.316855 2.9728556 0
1.4195001 -10.309477 2.9659114 0
1.8143179 -10.307392 2.9837487 0
2.2248893 -10.305882 2.9783576 0
2.6148069 -10.312586 2.990288 0
3.0291948 -10.304896 2.9892714 0
3.4339962 -10.303869 2.9928768 0
3.809181 -10.30801 3.0427179 0
4.2317033 -10.305758 3.0529442 0
4.6628361 -10.307283 3.0539081 0
5.0547376 -10.309531 3.0169482 0
5.419775 -10.302281 3.0196207 0
5.8198528 -10.290856 2.9901412 0
6.243794 -10.25975 3.0091727 0
6.4440956 -10.177828 2.9582798 0
-7.2493258 -9.7520361 3.0015578 0
-7.0214615 -9.8638725 2.9589159 0
-6.6382794 -9.8670425 3.0960984 0
-5.232801 -9.8590651 2.9613431 0
-5.1606693 -9.8749752 2.9677505 0
-4.5239244 -9.8209934 2.8797498 0
-0.56885695 -9.9987211 2.8653917 0
-0.1693542 -9.9565639 3.0562036 0
0.21750176 -9.9367142 3.0645401 0
0.53509438 -9.9374971 3.0304651 0
0.97691518 -9.9295597 2.9440503 0
1.4268651 -9.8937778 2.9685218 0
1.8354733 -9.8600597 2.9521031 0
2.2767572 -9.84097 2.9425509 0
2.6558371 -9.7947483 2.9478469 0
3.0641468 -9.7874641 2.9346728 0
3.451472 -9.7599649 2.9502459 0
3.8097277 -9.7161999 2.9365284 0
4.1803079 -9.723731 2.9981396 0
4.6083603 -9.6770868 2.9562461 0
4.9682021 -9.6502619 2.9498234 0
5.4222732 -9.666048 2.9853554 0
5.7680163 -9.6340103 3.0013926 0
6.3589921 -9.7834129 3.11096 0
6.4482808 -9.8091145 3.0174224 0
-7.2765212 -9.3823185 2.9700837 0
5.3317103 -9.5602293 2.8705952 0
5.9072943 -9.5487432 2.9375939 0
6.1836042 -9.5327129 2.9441848 0
6.4648566 -9.4168234 3.0260839 0
7.0115771 -9.4611616 3.1369762 0
7.2048306 -9.3106871 2.9872289 0
-7.269196 -8.9783506 2.9877725 0
6.3831758 -8.8498058 2.8052883 0
6.4453225 -9.0009193 2.9952979 0
7.1056871 -8.9402504 3.0096722 0
-7.2753358 -8.6074791 2.9724412 0
6.376688 -8.6855764 3.1396704 0
6.446023 -8.6014423 3.0287702 0
7.0926499 -8.580102 3.0011859 0
-7.2726173 -8.2787428 2.9378297 0
6.3977718 -8.3643799 3.0882766 0
6.4455552 -8.1887865 3.0304639 0
7.0621758 -8.1460009 3.0171995 0
-7.2775683 -7.8097529 2.8791058 0
6.3888664 -7.7896199 2.9840333 0
6.4456286 -7.7932568 3.0467613 0
7.0477991 -7.8165812 2.9598322 0
-7.2507896 -7.4465289 3.1110075 0
6.4502921 -7.3846116 3.0052307 0
7.0521646 -7.3531342 2.912761 0
-7.2743196 -6.9734497 3.0668635 0
6.3834376 -7.0062184 3.0642917 0
6.4389019 -7.0040717 3.0208139 0
-7.2770839 -6.530046 2.9683747 0
6.375464 -6.554615 3.0670013 0
6.4449148 -6.6018171 3.0332184 0
-7.2759271 -6.1618605 2.8971817 0
6.445344 -6.1919489 3.0150428 0
6.9304137 -6.1912308 3.0748057 0
-7.2709045 -5.9143701 2.9204931 0
6.379333 -5.7663827 3.0754299 0
6.439261 -5.8072853 3.0283878 0
6.9173646 -5.8222995 2.9920795 0
-7.270175 -5.2620354 2.9090383 0
-7.0824866 -5.430573 2.8914673 0
-6.5572729 -5.4227271 3.0952983 0
-5.2386885 -5.3931608 2.9589911 0
-5.1791139 -5.3911328 2.9198275 0
6.3922858 -5.3942771 3.0370929 0
6.4406419 -5.4105425 3.0151856 0
6.891932 -5.4399781 2.9701588 0
-7.2579627 -4.9803824 2.9110019 0
6.3984089 -4.9817648 3.0292377 0
6.4345446 -5.011158 3.0092909 0
6.8471231 -4.9786978 2.9885609 0
-7.2817407 -4.6089292 2.9893265 0
6.3767939 -4.744072 3.1340277 0
6.4311266 -4.5932908 3.0120363 0
6.8399606 -4.6611657 2.9646339 0
-7.2461796 -4.2538447 2.8966205 0
6.3752222 -4.3654327 3.0730066 0
6.4330792 -4.2004223 2.9930725 0
6.8072433 -4.2981811 3.1079493 0
-7.2728586 -3.9456067 2.9996734 0
6.383451 -3.7482114 2.9862044 0
6.4285603 -3.8120754 3.0070696 0
6.3907952 -3.3784161 3.0203586 0
6.4682355 -3.3747931 3.0139828 0
6.3793707 -2.9431071 3.0178742 0
6.4804764 -2.9753933 3.0023 0
6.3866301 -2.5486844 3.0585597 0
6.4772549 -2.5972753 3.0325172 0
-7.309298 -2.1236513 3.0557144 0
6.3846016 -2.1683464 3.0491903 0
6.4566984 -2.1959636 3.0152962 0
-7.3022814 -1.8200735 3.0531316 0
6.3807683 -1.8202415 3.0804698 0
6.461401 -1.8106568 3.0489492 0
-7.2946968 -1.3843592 3.062782 0
6.3722043 -1.4494647 3.019932 0
6.4368505 -1.3902751 3.0295939 0
-7.2674465 -0.98922741 3.0537448 0
-7.01618 -1.0609025 2.9681799 0
-6.6812882 -1.0589554 2.9871469 0
-5.1978846 -1.1623936 2.8205967 0
6.3733788 -1.0357653 3.0094826 0
6.4291258 -0.99517822 2.9924731 0
-7.2993488 -0.60122478 2.9824755 0
6.3766265 -0.61563706 3.0146222 0
6.4345756 -0.58349347 2.9823158 0
-7.2971988 -0.24195768 2.968699 0
6.3720298 -0.16314535 3.006413 0
6.431417 -0.18850769 2.9715385 0
-7.3021455 0.19157501 2.9409838 0
6.3617239 0.18145858 3.0097358 0
6.435008 0.21773142 2.981617 0
-7.2923646 0.60236549 3.0796087 0
6.3856778 0.58616883 3.0215862 0
6.4295907 0.58934599 2.9856958 0
-7.2899394 0.94395179 3.0434155 0
6.3771844 1.0204046 3.019172 0
