# .PCD v0.7 - Point Cloud Data file format
VERSION 0.7
FIELDS x y z intensity
SIZE 4 4 4 4
TYPE F F F F
COUNT 1 1 1 1
WIDTH 1348
HEIGHT 1
VIEWPOINT 0 0 0 1 0 0 0
POINTS 1348
DATA ascii
0.12524603 -4.9319968 -0.51518375 0
0.25933039 -4.881566 -0.52528179 0
0.45934415 -4.9134016 -0.51952159 0
0.68508756 -4.8668289 -0.51236004 0
0.89773017 -4.9114327 -0.53744447 0
1.0697147 -4.9024272 -0.51073474 0
1.301604 -4.8619576 -0.51908803 0
1.4994264 -4.9003057 -0.51336873 0
1.7586977 -4.8992858 -0.52810556 0
1.9413221 -4.8365927 -0.52378035 0
2.1223052 -4.9419994 -0.51976144 0
2.3197217 -4.8683772 -0.51415759 0
2.454479 -4.8970494 -0.52577168 0
2.972353 -4.9147177 -0.50571012 0
3.1101933 -4.8970566 -0.52379608 0
3.325613 -4.873817 -0.5200218 0
3.4999061 -4.8733091 -0.53056455 0
3.7171555 -4.9564915 -0.52234769 0
3.8992243 -4.9289293 -0.52251315 0
4.1342068 -4.8865671 -0.51032251 0
4.3055077 -4.9071646 -0.49759048 0
4.4703312 -4.9282169 -0.51511741 0
4.855535 -4.8616138 -0.50393349 0
5.9306979 -4.8578634 -0.50699902 0
-7.311625 -4.7055459 -0.49856716 0
-7.074019 -4.7238564 -0.54786021 0
-6.9112039 -4.7332253 -0.56641459 0
-6.6937928 -4.6733975 -0.54431576 0
-6.4846039 -4.7273259 -0.53902847 0
-6.2988691 -4.6672325 -0.54762125 0
-6.0686688 -4.7021871 -0.55659747 0
-5.900866 -4.7119818 -0.55225056 0
-5.6635365 -4.7162857 -0.5185954 0
-5.4898453 -4.7167096 -0.55342567 0
-5.3029671 -4.6944389 -0.53376484 0
-5.1094952 -4.7184792 -0.548379 0
-4.8853621 -4.6467881 -0.55060595 0
-4.6811075 -4.70577 -0.52433121 0
-4.497139 -4.7342315 -0.52906573 0
-4.2799706 -4.7037158 -0.53587168 0
-4.1054373 -4.687892 -0.53157526 0
-3.8911529 -4.7188616 -0.52706021 0
-3.6664639 -4.636878 -0.53302693 0
-3.4970973 -4.6940408 -0.53292102 0
-3.3454239 -4.7065306 -0.53171772 0
-3.0919147 -4.7247953 -0.53724116 0
-2.8910294 -4.6793375 -0.52046084 0
-2.7066805 -4.6875057 -0.5374642 0
-2.5217364 -4.7065368 -0.52136791 0
-2.3053195 -4.7107482 -0.53647864 0
-2.0728068 -4.7257509 -0.53059012 0
-1.8840711 -4.7042398 -0.53699416 0
-1.7003235 -4.7061915 -0.52749425 0
-1.5057199 -4.6993008 -0.51850104 0
-1.2760007 -4.689733 -0.52202076 0
-1.0946475 -4.6837883 -0.53310144 0
-0.88478887 -4.6924973 -0.52442378 0
-0.684677 -4.6889634 -0.53276724 0
-0.49155912 -4.6865525 -0.54948562 0
-0.31522459 -4.6982784 -0.54811597 0
-0.097827151 -4.7122583 -0.51983714 0
0.098802954 -4.7252345 -0.54024315 0
0.32958257 -4.7248154 -0.53950238 0
0.468878 -4.6676207 -0.51598281 0
0.92573822 -4.6840992 -0.52872491 0
1.0671698 -4.6590157 -0.50458568 0
1.2848654 -4.7254429 -0.50507325 0
1.5370338 -4.756743 -0.51461232 0
1.7817284 -4.6251111 -0.50628352 0
1.9128137 -4.6727519 -0.51623189 0
2.0194197 -4.6206956 -0.50503314 0
2.3271656 -4.7004714 -0.51136416 0
2.4391468 -4.733963 -0.53676689 0
2.7124856 -4.687243 -0.52219862 0
2.8532758 -4.7283955 -0.50891161 0
3.1133053 -4.6651897 -0.52497238 0
3.3304791 -4.7093592 -0.50902259 0
3.4964714 -4.7252054 -0.52225196 0
3.7032638 -4.6857767 -0.53012925 0
3.8838987 -4.7277961 -0.52785701 0
4.047379 -4.7039447 -0.50146347 0
4.2761407 -4.7253895 -0.5228281 0
4.4903789 -4.7393661 -0.52619314 0
4.6360006 -4.7131515 -0.52717829 0
4.8452611 -4.7070231 -0.51773506 0
5.1032238 -4.6906009 -0.49724582 0
5.3443074 -4.7578063 -0.50836897 0
5.4418707 -4.7208371 -0.50242031 0
-7.2595763 -4.5149803 -0.48839366 0
-7.112041 -4.5174956 -0.55188203 0
-6.917695 -4.5232639 -0.55296957 0
-6.6914749 -4.4912329 -0.54904914 0
-6.4695373 -4.5386019 -0.55080819 0
-6.2715912 -4.5236259 -0.54341584 0
-6.132 -4.4390597 -0.53884578 0
-5.8679318 -4.5556078 -0.5481199 0
-5.7609162 -4.4792395 -0.54987729 0
-5.5434093 -4.4087391 -0.51036245 0
-5.2737823 -4.4383197 -0.54163903 0
-5.0679932 -4.5057325 -0.53702003 0
-4.9792137 -4.5163364 -0.53727973 0
-4.7204523 -4.4889407 -0.54331952 0
-4.5142493 -4.5034051 -0.53068566 0
-4.3355918 -4.4749556 -0.54004592 0
-4.0785236 -4.5053616 -0.53516823 0
-3.929153 -4.5128098 -0.52363122 0
-3.7129378 -4.522666 -0.54985654 0
-3.4698517 -4.4928923 -0.53009814 0
-3.2878487 -4.4808812 -0.53507847 0
-3.0953512 -4.4870138 -0.53610772 0
-2.8895879 -4.4985285 -0.52567422 0
-2.6929297 -4.4869099 -0.54210871 0
-2.4810176 -4.4798579 -0.52774161 0
-2.3077981 -4.5249033 -0.5340085 0
-2.1056862 -4.5031295 -0.53172219 0
-1.8801044 -4.5420961 -0.51128161 0
-1.6727242 -4.5228715 -0.52863997 0
-1.5114722 -4.4954147 -0.54498637 0
-1.3037775 -4.5293293 -0.5186823 0
-1.1213408 -4.4690504 -0.52215278 0
-0.92951804 -4.5172038 -0.53483653 0
-0.73584163 -4.5285301 -0.51036477 0
-0.51220584 -4.5280819 -0.54608917 0
-0.29831925 -4.5345373 -0.53172266 0
-0.077927291 -4.4928184 -0.53635657 0
0.092064671 -4.4827743 -0.53177798 0
0.31537551 -4.5023713 -0.51784003 0
0.50246429 -4.4922194 -0.52145481 0
0.64289445 -4.549624 -0.53486311 0
0.93207169 -4.5103359 -0.53351408 0
1.0876004 -4.4916296 -0.51690531 0
1.3351249 -4.4697642 -0.53660631 0
1.4894601 -4.49335 -0.52071959 0
1.7333668 -4.5064764 -0.51600194 0
1.868655 -4.4611349 -0.51898849 0
2.0943062 -4.4998627 -0.52300018 0
2.3508565 -4.4208131 -0.46559897 0
2.5186577 -4.4975281 -0.52891338 0
2.6628821 -4.5854492 -0.53174365 0
2.8049304 -4.4416819 -0.50771624 0
3.1210752 -4.5213051 -0.5240283 0
3.2669802 -4.4594979 -0.52530354 0
3.569855 -4.431262 -0.52026045 0
3.6977911 -4.5263553 -0.52341884 0
3.8758731 -4.5448799 -0.53369963 0
4.0616083 -4.535553 -0.53534979 0
4.2963977 -4.447319 -0.47850245 0
4.443706 -4.4496622 -0.53357196 0
4.7105813 -4.4177446 -0.40554747 0
4.8768458 -4.5082812 -0.50197113 0
5.1511879 -4.450407 -0.51614314 0
6.2461905 -4.4102035 -0.45122528 0
6.4813671 -4.4897814 -0.54216623 0
-7.2835321 -4.2705436 -0.51019448 0
-7.1021695 -4.3265114 -0.54052347 0
-6.8655996 -4.2706003 -0.53715789 0
-6.7324796 -4.3309965 -0.55174708 0
-6.4777775 -4.2482166 -0.5638265 0
-6.3270516 -4.2783065 -0.54692024 0
-6.0171099 -4.3085608 -0.53212845 0
-5.9360137 -4.2806101 -0.53696752 0
-5.7218614 -4.2843428 -0.54508841 0
-5.4821568 -4.3093963 -0.55531025 0
-5.2724195 -4.2978716 -0.53649479 0
-5.073936 -4.2686944 -0.5404073 0
-4.903615 -4.2886443 -0.54279137 0
-4.7319326 -4.2921305 -0.54404563 0
-4.5804634 -4.3048935 -0.5267334 0
-4.2970147 -4.2781229 -0.54212993 0
-4.0725899 -4.3334751 -0.53149515 0
-3.8911636 -4.2619624 -0.52946758 0
-3.7188051 -4.2991915 -0.52950859 0
-3.4869192 -4.328619 -0.53167343 0
-3.2983665 -4.3106751 -0.54630965 0
-3.0742741 -4.3030891 -0.53746051 0
-2.8942187 -4.2938957 -0.53183007 0
-2.6836176 -4.2987809 -0.51742345 0
-2.4840958 -4.3016477 -0.52616185 0
-2.2880347 -4.2945485 -0.52978438 0
-2.0843163 -4.3125796 -0.52668595 0
-1.9084986 -4.2622995 -0.53895146 0
-1.7340513 -4.3405232 -0.54657698 0
-1.4774736 -4.3192301 -0.53036571 0
-1.2905635 -4.3181462 -0.51992959 0
-1.0831354 -4.266212 -0.52205491 0
-0.92190462 -4.3281441 -0.52441919 0
-0.72129935 -4.2697988 -0.52955538 0
-0.4776364 -4.2972808 -0.53422672 0
-0.26675925 -4.3193636 -0.53058404 0
-0.1008227 -4.2895203 -0.53157508 0
0.094793372 -4.2731509 -0.52994257 0
0.29048643 -4.3123775 -0.53309983 0
0.48807788 -4.3003578 -0.5457021 0
0.67181563 -4.2860818 -0.5213713 0
0.87848681 -4.2963023 -0.52108437 0
1.1261889 -4.3432088 -0.52892262 0
1.3453866 -4.3348413 -0.51589185 0
1.5005003 -4.3514042 -0.53391767 0
1.727949 -4.302515 -0.52143842 0
1.8691747 -4.2882943 -0.53362221 0
2.0766234 -4.3142285 -0.51837599 0
2.3451698 -4.3638968 -0.4730998 0
2.5035002 -4.3279533 -0.50918859 0
2.661237 -4.2779732 -0.51862973 0
2.8763323 -4.2618961 -0.52329755 0
3.0937278 -4.2746582 -0.5241335 0
3.3487649 -4.272438 -0.5067082 0
3.5525031 -4.2795634 -0.51728469 0
3.6891267 -4.3162498 -0.51890659 0
3.8981872 -4.3376932 -0.51656222 0
4.0926991 -4.3671308 -0.50976366 0
4.3095326 -4.3561997 -0.47365499 0
4.5634594 -4.267951 -0.50036675 0
4.7108841 -4.3813176 -0.49683201 0
4.9112072 -4.3528261 -0.50255758 0
5.0786185 -4.2619467 -0.50557715 0
5.4861512 -4.286396 -0.50842822 0
6.227746 -4.3727007 -0.50812435 0
6.4850378 -4.3618689 -0.48874938 0
-7.2658615 -4.1172729 -0.5700925 0
-7.1193552 -4.1382885 -0.55884945 0
-6.9511395 -4.1048279 -0.54907274 0
-6.7004185 -4.1352787 -0.51904613 0
-6.4721656 -4.1093969 -0.53821486 0
-6.2796493 -4.1001654 -0.54859871 0
-6.0628958 -4.133131 -0.55367786 0
-5.887958 -4.037302 -0.56315517 0
-5.6736641 -4.0560794 -0.5056507 0
-5.4927397 -4.0982289 -0.54228789 0
-5.3110743 -4.0997486 -0.55371892 0
-5.1153617 -4.094872 -0.53350168 0
-4.8928027 -4.0708456 -0.53518003 0
-4.7334609 -4.1272388 -0.54731029 0
-4.497108 -4.1412187 -0.55161941 0
-4.3044362 -4.1093802 -0.52581912 0
-4.1207538 -4.077188 -0.52919954 0
-3.935056 -4.0832877 -0.53833127 0
-3.704639 -4.1054587 -0.53074116 0
-3.4843397 -4.0877652 -0.52966875 0
-3.2941325 -4.0917988 -0.5313701 0
-3.0988131 -4.105927 -0.53688389 0
-2.8984721 -4.0843763 -0.52564323 0
-2.7164097 -4.0706697 -0.52782387 0
-2.4967682 -4.141592 -0.53084379 0
-2.296283 -4.1095195 -0.53365171 0
-2.1182768 -4.1332893 -0.53421766 0
-1.8949994 -4.1112285 -0.52772152 0
-1.6923854 -4.0875835 -0.53611594 0
-1.4987352 -4.0747871 -0.53730923 0
-1.2916583 -4.0901604 -0.53779417 0
-1.1233354 -4.0795822 -0.52238238 0
-0.89275765 -4.104465 -0.5334934 0
-0.6866141 -4.1456151 -0.52434868 0
-0.5013504 -4.106298 -0.53144687 0
-0.28331104 -4.1388259 -0.53342736 0
-0.1081963 -4.1475425 -0.51997751 0
0.094175421 -4.0767183 -0.53212291 0
0.29772055 -4.0957718 -0.52972436 0
0.53525263 -4.131382 -0.54029495 0
0.68953669 -4.0816584 -0.53430098 0
0.89359862 -4.1210904 -0.52107269 0
1.0930315 -4.0862885 -0.5256229 0
1.3253413 -4.1042223 -0.52926278 0
1.5018349 -4.108078 -0.51741171 0
1.7156855 -4.0919509 -0.52781951 0
1.9024661 -4.1817517 -0.51733679 0
2.0996833 -4.0806503 -0.52569121 0
2.3173742 -4.1141515 -0.53577888 0
2.4756896 -4.0855193 -0.52969271 0
2.6759655 -4.0830755 -0.52361524 0
2.8600707 -4.1371555 -0.51859969 0
3.1415529 -4.1035986 -0.54376161 0
3.2912655 -4.0542736 -0.5105353 0
3.533596 -4.0491858 -0.52396595 0
3.7062111 -4.1068001 -0.52120042 0
3.9348912 -4.094913 -0.52677393 0
4.041028 -4.1102943 -0.49985924 0
4.2836776 -4.1211357 -0.51690483 0
4.4591632 -4.1284633 -0.50816453 0
4.9280663 -4.1945381 -0.51021475 0
5.3804445 -4.1572733 -0.50624371 0
5.4811735 -4.0113077 -0.50030112 0
-7.2515278 -3.8907104 -0.53019142 0
-7.0748138 -3.8718536 -0.5363397 0
-6.9211426 -3.8886752 -0.53485072 0
-6.7030225 -3.8803329 -0.54866582 0
-6.4550447 -3.9103432 -0.53198111 0
-6.3198419 -3.8916845 -0.54379112 0
-6.1858711 -3.8384986 -0.54504174 0
-5.9252276 -3.9022493 -0.55985796 0
-5.652761 -3.9316039 -0.52537137 0
-5.5193601 -3.8693922 -0.53421634 0
-5.2850099 -3.8691146 -0.52890229 0
-5.1032705 -3.8817112 -0.53537166 0
-4.8429923 -3.861943 -0.54847717 0
-4.7431283 -3.8602858 -0.5242281 0
-4.4973598 -3.92943 -0.5473178 0
-4.2662368 -3.9085574 -0.54716694 0
-4.1218266 -3.9381902 -0.52520567 0
-3.8897374 -3.8863609 -0.53659528 0
-3.662061 -3.8723145 -0.53294092 0
-3.5116131 -3.8875549 -0.53326494 0
-3.2991366 -3.8966625 -0.54011238 0
-3.0814719 -3.9031143 -0.53561634 0
-2.9157372 -3.9052069 -0.52634192 0
-2.720365 -3.9141412 -0.53987646 0
-2.5398281 -3.9186487 -0.53210038 0
-2.318449 -3.8903418 -0.52170354 0
-2.111763 -3.8926375 -0.5336116 0
-1.9249254 -3.895366 -0.51502609 0
-1.7446808 -3.8962865 -0.5440827 0
-1.4880631 -3.8981416 -0.53701758 0
-1.3216189 -3.9123116 -0.5397715 0
-1.0773082 -3.9071393 -0.5431993 0
-0.89134359 -3.8880162 -0.52938563 0
-0.71558899 -3.8988318 -0.54609549 0
-0.50925756 -3.8976636 -0.54186112 0
-0.31141764 -3.8898494 -0.53027529 0
-0.07963533 -3.9451869 -0.52753901 0
0.093502983 -3.8797631 -0.53456008 0
0.29220843 -3.9078898 -0.53037864 0
0.48362595 -3.8758531 -0.53169382 0
0.7044158 -3.8857527 -0.52452594 0
0.91877091 -3.8801434 -0.52405804 0
1.1065844 -3.8766696 -0.51701134 0
1.3319221 -3.8806901 -0.51977426 0
1.5385433 -3.9359627 -0.51332664 0
1.6827246 -3.9003751 -0.50410491 0
1.9034908 -3.8989682 -0.52870739 0
2.09096 -3.9035275 -0.51537257 0
2.31902 -3.8829765 -0.51953572 0
2.5006094 -3.9075985 -0.50776017 0
2.7408421 -3.8815906 -0.51927692 0
2.9316201 -3.8284278 -0.52373391 0
3.1150348 -3.9183559 -0.51224917 0
3.3658924 -3.8670125 -0.51559097 0
3.5545118 -3.8514285 -0.50555849 0
3.6326334 -3.9701824 -0.53831571 0
3.8559451 -3.9104645 -0.52245438 0
4.0720611 -3.8976097 -0.52934092 0
4.3059654 -3.890929 -0.51085889 0
4.4853616 -3.905489 -0.50989038 0
4.7369747 -3.8937781 -0.50781953 0
5.1095405 -3.8514152 -0.53278512 0
5.2665224 -3.9827559 -0.50240594 0
6.4919624 -3.8480856 -0.51565492 0
-7.2625413 -3.7294564 -0.55830222 0
-7.088069 -3.6976056 -0.54738557 0
-6.8948798 -3.7454221 -0.55471784 0
-6.7101393 -3.6538856 -0.54607958 0
-6.5073237 -3.6777225 -0.52948445 0
-6.2828522 -3.6949203 -0.54712254 0
-6.1133299 -3.7104096 -0.56132507 0
-5.9129057 -3.7252073 -0.55290544 0
-5.7135582 -3.7168076 -0.55147129 0
-5.5113826 -3.65832 -0.55655676 0
-5.3050642 -3.757412 -0.55817956 0
-5.0939569 -3.7310376 -0.54656625 0
-4.8943982 -3.7016065 -0.54211622 0
-4.7131333 -3.7063367 -0.53664446 0
-4.5205092 -3.6931674 -0.53361762 0
-4.2574501 -3.6938045 -0.54062706 0
-4.1035137 -3.7212768 -0.51819217 0
-3.9011135 -3.6567514 -0.54067975 0
-3.6796391 -3.7269328 -0.54513407 0
-3.500968 -3.6823401 -0.53509027 0
-3.3016293 -3.7049353 -0.54173261 0
-3.111542 -3.7098892 -0.53682637 0
-2.913511 -3.7051086 -0.52375966 0
-2.7239492 -3.6929076 -0.52929616 0
-2.4799325 -3.6935408 -0.53522968 0
-2.3237224 -3.7107666 -0.53997225 0
-2.1096814 -3.7222157 -0.5331077 0
-1.8995968 -3.716701 -0.53864014 0
-1.6935256 -3.7197418 -0.53281909 0
-1.5070381 -3.7189991 -0.54158181 0
-1.2700222 -3.7130466 -0.53987151 0
-1.0795653 -3.7179282 -0.53715694 0
-0.90490913 -3.7053981 -0.53588039 0
-0.72558606 -3.7089152 -0.52183223 0
-0.50818992 -3.6875825 -0.51678711 0
-0.28631026 -3.7270353 -0.54444748 0
-0.13401383 -3.6922982 -0.52880681 0
0.097544342 -3.7230599 -0.53920269 0
0.30538991 -3.6817737 -0.53209853 0
0.50609916 -3.7052159 -0.5285241 0
0.6741882 -3.706769 -0.52247024 0
0.87954527 -3.6878042 -0.52602178 0
1.1072265 -3.6931553 -0.5201664 0
1.3081321 -3.7443619 -0.52490211 0
1.5081077 -3.7083025 -0.52491152 0
1.7174256 -3.7143757 -0.53153473 0
1.8882645 -3.6758816 -0.52220356 0
2.1056254 -3.6940851 -0.51257801 0
2.2936656 -3.6861393 -0.5265196 0
2.4763625 -3.7067857 -0.53001934 0
2.6894286 -3.6349003 -0.52562743 0
2.8773069 -3.6953099 -0.51092237 0
3.0671628 -3.6732116 -0.52645761 0
3.2875175 -3.6704721 -0.52712506 0
3.5156128 -3.6403644 -0.52067113 0
3.6929359 -3.6805394 -0.54039484 0
3.880367 -3.6935627 -0.52115059 0
4.0599151 -3.7013361 -0.51351506 0
4.3773699 -3.7985473 -0.49101883 0
4.5247359 -3.6486983 -0.53556365 0
4.7482986 -3.7010291 -0.5185793 0
5.1876879 -3.6071427 -0.51881564 0
5.2454457 -3.6741061 -0.50851977 0
5.5078921 -3.6430564 -0.51356006 0
5.774785 -3.6118479 -0.50200301 0
5.9312782 -3.6652408 -0.50471395 0
6.5058103 -3.6707754 -0.54194653 0
-7.2655883 -3.5208488 -0.52618432 0
-7.0666094 -3.4688981 -0.53447002 0
-6.9333839 -3.497313 -0.5525071 0
-6.7155538 -3.4697359 -0.54797572 0
-6.4697323 -3.5923653 -0.54700804 0
-6.2749515 -3.4979668 -0.53750741 0
-6.0749226 -3.514647 -0.5636853 0
-5.9003787 -3.5191638 -0.55378169 0
-5.7413177 -3.5073738 -0.53777063 0
-5.5399971 -3.492547 -0.54952145 0
-5.3049421 -3.4923651 -0.54351932 0
-5.114759 -3.4800112 -0.53899693 0
-4.8961377 -3.4560153 -0.54097015 0
-4.7271585 -3.5128055 -0.56691527 0
-4.5188556 -3.5061083 -0.51817012 0
-4.3124442 -3.5375855 -0.53482282 0
-4.0778723 -3.4953549 -0.54901898 0
-3.8921473 -3.5039384 -0.53919089 0
-3.7180352 -3.5188463 -0.55136967 0
-3.520771 -3.5120139 -0.53713858 0
-3.2838533 -3.4966764 -0.52894998 0
-3.0944726 -3.500941 -0.52813441 0
-2.8931761 -3.4938002 -0.53499532 0
-2.6634858 -3.5089612 -0.53332871 0
-2.5196929 -3.5217373 -0.53313076 0
-2.2840171 -3.510849 -0.54052538 0
-2.0816722 -3.4618456 -0.53281391 0
-1.9128001 -3.5116975 -0.53981471 0
-1.7214651 -3.508745 -0.54368234 0
-1.5061421 -3.5050464 -0.53153974 0
-1.3001238 -3.5248713 -0.53856516 0
-1.0982252 -3.5004952 -0.5307247 0
-0.90507442 -3.5416856 -0.53666776 0
-0.72015482 -3.5057814 -0.53126305 0
-0.4996751 -3.5008712 -0.52815431 0
-0.30414978 -3.477031 -0.54304552 0
-0.096657522 -3.515404 -0.52746999 0
0.06999857 -3.5146518 -0.53571016 0
0.2868478 -3.5165679 -0.52599347 0
0.54151833 -3.5174255 -0.51857901 0
0.68552166 -3.5259626 -0.53124946 0
0.89928418 -3.4996717 -0.52795666 0
1.1041968 -3.5070448 -0.52875245 0
1.322244 -3.5054429 -0.52309233 0
1.5236565 -3.475904 -0.53087336 0
1.7043676 -3.4750073 -0.52188259 0
1.9264224 -3.5014803 -0.5157361 0
2.150897 -3.4573944 -0.51347351 0
2.3505046 -3.4524157 -0.46077922 0
2.460793 -3.4703801 -0.49073538 0
2.7137427 -3.5122244 -0.52569479 0
2.9035206 -3.5021029 -0.52650285 0
3.1160083 -3.5006752 -0.51872927 0
3.283597 -3.4952869 -0.51235318 0
3.5063617 -3.5044675 -0.50754988 0
3.7148888 -3.4624748 -0.52829784 0
3.8793614 -3.5350335 -0.50838119 0
4.0534658 -3.4652243 -0.51799142 0
4.3025203 -3.4462895 -0.46526477 0
4.509408 -3.485971 -0.52254999 0
4.673501 -3.4482737 -0.50722504 0
4.9511366 -3.5198102 -0.48908082 0
5.0785794 -3.4622192 -0.54091674 0
5.2222242 -3.4793923 -0.513179 0
5.7553921 -3.4325542 -0.50063932 0
6.1828446 -3.4308178 -0.45149004 0
6.2364473 -3.4239209 -0.45752925 0
6.4845433 -3.5008264 -0.43948776 0
-7.289712 -3.2817767 -0.5401389 0
-7.0694337 -3.2795708 -0.54026735 0
-6.9754081 -3.2483065 -0.56169254 0
-6.6873212 -3.319906 -0.55173951 0
-6.4961762 -3.2619197 -0.52383488 0
-6.2486815 -3.2796648 -0.53805763 0
-6.1280289 -3.3214123 -0.53375632 0
-5.8931131 -3.2723136 -0.54168516 0
-5.718699 -3.2955289 -0.56449223 0
-5.4957361 -3.3005583 -0.54882199 0
-5.2965126 -3.2997949 -0.52659607 0
-5.1076641 -3.2783153 -0.54907215 0
-4.9011202 -3.2836285 -0.53518111 0
-4.6815429 -3.3407497 -0.54386508 0
-4.4965658 -3.3078873 -0.53059214 0
-4.3111949 -3.2623515 -0.53209555 0
-4.1208649 -3.3027382 -0.53576154 0
-3.8960524 -3.3070738 -0.53648716 0
-3.6946793 -3.2821021 -0.54311436 0
-3.4970019 -3.2921553 -0.53359896 0
-3.3133471 -3.2923951 -0.53594798 0
-3.1064408 -3.3359585 -0.55389684 0
-2.8884091 -3.2724986 -0.53194714 0
-2.7163792 -3.3095496 -0.52744406 0
-2.4978833 -3.3064859 -0.5420453 0
-2.2809603 -3.3036973 -0.54537654 0
-2.0985904 -3.2727432 -0.53435922 0
-1.9162278 -3.2655532 -0.52753335 0
-1.7023549 -3.2981026 -0.53505903 0
-1.5009068 -3.2958627 -0.53981346 0
-1.2893312 -3.2782497 -0.54606807 0
-1.1119469 -3.2962584 -0.53543216 0
-0.90438014 -3.2960534 -0.5372352 0
-0.6967234 -3.3041358 -0.53448665 0
-0.47214285 -3.3015337 -0.54335362 0
-0.2918503 -3.2640064 -0.52383697 0
-0.098617196 -3.3131645 -0.52578861 0
0.095098905 -3.2904394 -0.52562815 0
0.28865528 -3.3225112 -0.54237109 0
0.550538 -3.3073368 -0.53921729 0
0.70738065 -3.3002613 -0.53881091 0
0.91073012 -3.3070571 -0.52777541 0
1.1042219 -3.2548645 -0.5155381 0
1.3067807 -3.3122592 -0.52245283 0
1.4920751 -3.3050523 -0.52360445 0
1.6924595 -3.2897673 -0.53294224 0
1.8610146 -3.2859654 -0.51880968 0
2.1158619 -3.2591476 -0.52592665 0
2.3115325 -3.3408089 -0.47364688 0
2.4887986 -3.3017006 -0.52398223 0
2.6844063 -3.3115184 -0.52910376 0
2.8639343 -3.262706 -0.52614731 0
3.145344 -3.2763529 -0.51813227 0
3.2720306 -3.2906215 -0.52764606 0
3.4972646 -3.3751621 -0.50408161 0
3.7246392 -3.3287361 -0.50339633 0
3.8827541 -3.2885215 -0.52401847 0
4.0842905 -3.2799942 -0.50796509 0
4.289566 -3.3368986 -0.45448035 0
4.5645165 -3.2235317 -0.48754817 0
4.7438865 -3.238019 -0.54111028 0
5.1019039 -3.260972 -0.52350283 0
5.4423671 -3.3885174 -0.47226098 0
5.7968006 -3.3871479 -0.50521988 0
5.8371897 -3.3410811 -0.50597525 0
6.2320442 -3.3647997 -0.43352336 0
-7.2692313 -3.0630028 -0.52681661 0
-7.0446334 -3.1176641 -0.55188632 0
-6.9229674 -3.121021 -0.54671967 0
-6.6772747 -3.100771 -0.5355013 0
-6.5011878 -3.0846224 -0.54217231 0
-6.3139949 -3.080904 -0.54629147 0
-6.0931869 -3.1004255 -0.53862691 0
-5.8910851 -3.0748847 -0.54672676 0
-5.7284226 -3.1037354 -0.53800815 0
-5.4801679 -3.0798705 -0.53768736 0
-5.2976513 -3.1161292 -0.54168123 0
-5.112699 -3.0981596 -0.53247958 0
-4.8777056 -3.1034734 -0.5394612 0
-4.7231269 -3.0759783 -0.54784501 0
-4.5100775 -3.0977566 -0.53758198 0
-4.30548 -3.1306462 -0.5356071 0
-4.0916734 -3.127589 -0.52872854 0
-3.8980405 -3.1216474 -0.52960205 0
-3.7398987 -3.1447649 -0.53602761 0
-3.4568005 -3.1007335 -0.54580003 0
-3.3182225 -3.0799379 -0.535752 0
-3.0928674 -3.1234634 -0.53132743 0
-2.903151 -3.1366262 -0.53951776 0
-2.7237611 -3.0950305 -0.53644705 0
-2.4614155 -3.0949762 -0.5374344 0
-2.2860327 -3.0866461 -0.53336948 0
-2.1151237 -3.0896518 -0.53114766 0
-1.9107955 -3.0831974 -0.53199601 0
-1.7128481 -3.0913672 -0.53511822 0
-1.5244039 -3.094511 -0.53379411 0
-1.3055146 -3.1085227 -0.53337866 0
-1.1056885 -3.0739245 -0.53276372 0
-0.9174096 -3.1107895 -0.54269373 0
-0.69293553 -3.1084671 -0.51863223 0
-0.49672896 -3.0898747 -0.5311482 0
-0.29041857 -3.1173337 -0.53475684 0
-0.097647861 -3.0759373 -0.53527069 0
0.11527859 -3.1166034 -0.52324355 0
0.28574976 -3.1008153 -0.5289048 0
0.51051074 -3.1143312 -0.52405041 0
0.68317574 -3.078228 -0.54088765 0
0.88924861 -3.1150239 -0.52943188 0
1.0540078 -3.1377544 -0.52273142 0
1.2968216 -3.0964174 -0.53394961 0
1.4835464 -3.1016817 -0.52567315 0
1.7068243 -3.1000519 -0.52119374 0
1.9383879 -3.098896 -0.52069747 0
2.0997775 -3.1261435 -0.52264541 0
2.2972887 -3.0515866 -0.52252465 0
2.5150383 -3.0647457 -0.52238756 0
2.6721206 -3.1420522 -0.50457436 0
2.8759305 -3.0111685 -0.53805596 0
3.0844345 -3.0899355 -0.51736927 0
3.3409472 -3.0547905 -0.52696645 0
3.4614332 -3.0910528 -0.51428419 0
3.6595774 -3.1122148 -0.5123499 0
3.8948917 -3.0863965 -0.5092212 0
4.0833483 -3.1444681 -0.54088068 0
4.3635921 -3.0892055 -0.50816935 0
4.4170036 -3.1092906 -0.50330353 0
5.0405536 -3.0083222 -0.49924856 0
5.3133965 -3.0758848 -0.50082844 0
6.4710894 -3.1218777 -0.4419851 0
-7.2587719 -2.8718975 -0.54622912 0
-7.1226392 -2.8725169 -0.53527629 0
-6.8904791 -2.8716154 -0.55560732 0
-6.668623 -2.9050415 -0.5622741 0
-6.5127106 -2.929285 -0.52672261 0
-6.2984467 -2.8681977 -0.54236591 0
-6.0948863 -2.8956802 -0.54903466 0
-5.9351268 -2.8614872 -0.54483122 0
-5.6966257 -2.9056566 -0.54644394 0
-5.5138164 -2.856755 -0.53813493 0
-5.2753997 -2.8703911 -0.54387254 0
-5.0411439 -2.8916538 -0.53266627 0
-4.8754244 -2.8783064 -0.52636027 0
-4.695694 -2.894865 -0.5213846 0
-4.5306644 -2.894887 -0.52862966 0
-4.2636652 -2.9231198 -0.54430211 0
-4.0920901 -2.9146326 -0.53127086 0
-3.8775847 -2.9168434 -0.53762507 0
-3.7019024 -2.902632 -0.53572166 0
-3.5404277 -2.9038458 -0.53136659 0
-3.2985494 -2.9197168 -0.53902519 0
-3.0696566 -2.8920765 -0.5290674 0
-2.8747108 -2.8958135 -0.53880084 0
-2.6783738 -2.9238966 -0.53208363 0
-2.5065761 -2.915761 -0.53673029 0
-2.3287714 -2.9150679 -0.54332232 0
-2.0950832 -2.9081371 -0.54062629 0
-1.9216516 -2.8867557 -0.53769982 0
-1.694919 -2.8887789 -0.53452444 0
-1.5113426 -2.893254 -0.53270078 0
-1.3041432 -2.8781569 -0.54143023 0
-1.0785526 -2.8978438 -0.53166139 0
-0.92090726 -2.8948042 -0.54584599 0
-0.71584672 -2.8917868 -0.5434522 0
-0.52191401 -2.9013822 -0.53627878 0
-0.3191075 -2.8855639 -0.54062992 0
-0.079803646 -2.9213386 -0.54842484 0
0.078407958 -2.9181037 -0.53277338 0
0.25726396 -2.8565252 -0.53223407 0
0.53901333 -2.9111583 -0.53519446 0
0.68369865 -2.8298061 -0.53527957 0
0.86723083 -2.8733199 -0.53001016 0
1.0809332 -2.8933461 -0.51716304 0
1.2938203 -2.8923941 -0.52318311 0
1.487488 -2.8605714 -0.5227409 0
1.7068721 -2.9236853 -0.52331185 0
1.9930387 -2.8766201 -0.50722635 0
2.0727644 -2.934417 -0.50639379 0
2.3159103 -2.912858 -0.52426863 0
2.4984398 -2.9020422 -0.53673947 0
2.6262474 -2.9114344 -0.48027599 0
2.8991125 -2.8839235 -0.52651215 0
3.0969303 -2.9020185 -0.52746224 0
3.292757 -2.8868585 -0.51367515 0
3.5244679 -2.878722 -0.5228743 0
3.6619008 -2.91062 -0.51898241 0
3.9061654 -2.909606 -0.50106007 0
4.1450272 -2.9863722 -0.50869256 0
4.3430452 -2.9149048 -0.52625 0
4.4444628 -2.8928533 -0.52349329 0
5.3213348 -2.8956959 -0.49833497 0
5.8843894 -2.9985065 -0.49735719 0
6.4381208 -2.8220336 -0.51817918 0
-7.272706 -2.6854224 -0.50141615 0
-7.0845423 -2.6728616 -0.53601617 0
-6.8952308 -2.6985118 -0.5369277 0
-6.6826553 -2.7189991 -0.54936588 0
-6.483789 -2.6798286 -0.54834479 0
-6.2979198 -2.7029135 -0.54460782 0
-6.1155319 -2.7297847 -0.53355175 0
-5.9274511 -2.7018826 -0.54423541 0
-5.6868534 -2.6619735 -0.53747261 0
-5.5609183 -2.6963129 -0.54518956 0
-5.2823706 -2.6998539 -0.53213096 0
-5.1357923 -2.6752203 -0.55042547 0
-4.8955545 -2.7016709 -0.54149139 0
-4.6961122 -2.7421234 -0.55432111 0
-4.4786944 -2.7033699 -0.52270263 0
-4.3104849 -2.6569221 -0.54558164 0
-4.0992012 -2.6938336 -0.53482145 0
-3.8956709 -2.6932385 -0.54325366 0
-3.7150731 -2.6769929 -0.53202069 0
-3.4948487 -2.6980188 -0.54253775 0
-3.3041608 -2.6761649 -0.53552967 0
-3.0964947 -2.703723 -0.52689344 0
-2.8871684 -2.7021117 -0.53557885 0
-2.6901324 -2.6965976 -0.53211462 0
-2.5505056 -2.7303534 -0.53389335 0
-2.3277957 -2.6810255 -0.53514868 0
-2.1183581 -2.7193074 -0.53960007 0
-1.8896648 -2.6657224 -0.5452773 0
-1.7058607 -2.7013359 -0.54229438 0
-1.5155977 -2.7097411 -0.53585136 0
-1.2979975 -2.7285705 -0.52978456 0
-1.106599 -2.6752899 -0.53010243 0
-0.87437284 -2.694154 -0.53300929 0
-0.70879161 -2.7099497 -0.53597391 0
-0.51425278 -2.6905377 -0.53422356 0
-0.31650072 -2.7080486 -0.52224231 0
-0.10130589 -2.7330594 -0.53705651 0
0.10185514 -2.7083666 -0.54326695 0
0.3029789 -2.7154982 -0.52349091 0
0.52661037 -2.7144628 -0.53128099 0
0.70142156 -2.7167761 -0.51640075 0
0.87089103 -2.6850884 -0.53382415 0
1.1096104 -2.6681485 -0.51192325 0
1.3306187 -2.690135 -0.53056794 0
1.5291039 -2.7026165 -0.52591568 0
1.6978153 -2.6720283 -0.52850705 0
1.9150071 -2.7333848 -0.51632512 0
2.1055276 -2.7130482 -0.52678114 0
2.3445396 -2.6334341 -0.47117618 0
2.4715087 -2.6832709 -0.48208284 0
2.6733053 -2.692014 -0.51772296 0
2.9068129 -2.6838412 -0.51417077 0
3.1252728 -2.7073736 -0.51989824 0
3.2814677 -2.6911006 -0.53217602 0
3.4834836 -2.708046 -0.51673621 0
3.6642542 -2.7590399 -0.51130003 0
3.932384 -2.6718354 -0.51188147 0
4.1096845 -2.6469231 -0.54905951 0
4.2901483 -2.6214695 -0.47331351 0
4.4121561 -2.7716143 -0.50214112 0
4.6847043 -2.7378917 -0.50399572 0
5.0851774 -2.6154311 -0.49803132 0
5.726181 -2.6152697 -0.49098182 0
5.8856411 -2.6867032 -0.49686521 0
6.210834 -2.6482494 -0.43356946 0
6.4599056 -2.7422676 -0.45637047 0
-7.3004942 -2.5287189 -0.5492357 0
-7.098176 -2.4791782 -0.56143409 0
-6.9196658 -2.5354183 -0.56249112 0
-6.699904 -2.523288 -0.54877561 0
-6.5051146 -2.5192072 -0.53550106 0
-6.3170114 -2.5260742 -0.55486381 0
-6.0914888 -2.5265684 -0.54548693 0
-5.8576159 -2.5070705 -0.54213578 0
-5.7174668 -2.4795144 -0.55227292 0
-5.4776778 -2.5317066 -0.54293579 0
-5.2852631 -2.5155849 -0.5461272 0
-5.1098828 -2.4922032 -0.54721016 0
-4.9030614 -2.4964938 -0.55101413 0
-4.7053237 -2.4712708 -0.53457355 0
-4.4921389 -2.50474 -0.53080231 0
-4.3036475 -2.5243802 -0.54289395 0
-4.1399584 -2.5238967 -0.5596602 0
-3.9516575 -2.5545833 -0.52772182 0
-3.6961594 -2.5138326 -0.52419233 0
-3.4964314 -2.4855087 -0.52322686 0
-3.3159187 -2.4930477 -0.5245502 0
-3.0917172 -2.4920199 -0.5359987 0
-2.8618338 -2.4976723 -0.54081732 0
-2.6947532 -2.5462582 -0.52888483 0
-2.5134232 -2.4874706 -0.53631508 0
-2.2950373 -2.4874809 -0.54376054 0
-2.0720701 -2.4758341 -0.53042918 0
-1.9188805 -2.5061488 -0.55204469 0
-1.7164841 -2.5060997 -0.53331643 0
-1.5023627 -2.4961009 -0.51769578 0
-1.3244424 -2.5054286 -0.53219891 0
-1.1063246 -2.5077872 -0.53436011 0
-0.8907696 -2.4699028 -0.53120059 0
-0.703273 -2.4816332 -0.55114681 0
-0.49085066 -2.4594495 -0.53316838 0
-0.29788032 -2.5056579 -0.54819667 0
-0.11908431 -2.4772923 -0.53717577 0
0.07364729 -2.4865057 -0.54107881 0
0.30709872 -2.5453703 -0.52064526 0
0.48161975 -2.5194337 -0.51965266 0
0.67447221 -2.5582328 -0.5141077 0
0.91172349 -2.4941008 -0.53066218 0
1.1048605 -2.536602 -0.52804494 0
1.308869 -2.4764664 -0.52734196 0
1.5385146 -2.529485 -0.5362311 0
1.7279882 -2.5178871 -0.52841812 0
1.8946111 -2.5051069 -0.51744199 0
2.0940025 -2.5079384 -0.5280149 0
2.3260667 -2.5411158 -0.48496214 0
2.5342023 -2.4799936 -0.5139519 0
2.6504245 -2.5018532 -0.53559673 0
2.8971426 -2.5583251 -0.51644206 0
3.0618513 -2.5066345 -0.53482157 0
3.2970352 -2.4985557 -0.51004183 0
3.4537368 -2.5471373 -0.53112578 0
3.6790967 -2.4352541 -0.50301957 0
3.88064 -2.5641034 -0.51303589 0
4.0663953 -2.5489628 -0.50818932 0
4.3188281 -2.5565903 -0.46283057 0
4.5157824 -2.4843316 -0.51124287 0
4.7360582 -2.5596378 -0.49587414 0
4.98387 -2.5212655 -0.52263731 0
5.3187284 -2.4911609 -0.49390268 0
5.4775991 -2.5097344 -0.50328088 0
5.6903715 -2.4030511 -0.50517142 0
5.8746419 -2.5119267 -0.50106955 0
6.1775804 -2.5588732 -0.46748057 0
6.2572489 -2.5917587 -0.44524682 0
6.4263983 -2.5267589 -0.51606238 0
-7.3052192 -2.3223867 -0.53949261 0
-7.0864453 -2.3379364 -0.54324162 0
-6.8907661 -2.2330923 -0.54866821 0
-6.6678381 -2.2760649 -0.56680834 0
-6.500679 -2.2827883 -0.5493018 0
-6.3134499 -2.2793605 -0.54297644 0
-6.0847654 -2.288934 -0.56147993 0
-5.8822355 -2.3057427 -0.55211639 0
-5.7085915 -2.2935913 -0.52565545 0
-5.5087557 -2.2950933 -0.54943442 0
-5.3007135 -2.2874408 -0.54440069 0
-5.0716796 -2.3110054 -0.53790504 0
-4.8700986 -2.2915623 -0.52062148 0
-4.6361866 -2.3624744 -0.51853943 0
-4.4971271 -2.3460753 -0.52792537 0
-4.284337 -2.3068523 -0.53355682 0
-4.0766397 -2.2807822 -0.53746939 0
-3.9109857 -2.2951579 -0.5314877 0
-3.732496 -2.2754874 -0.53022087 0
-3.5098939 -2.3139212 -0.53578651 0
-3.2835512 -2.3278716 -0.52594501 0
-3.0897617 -2.2835221 -0.53662449 0
-2.9233055 -2.288013 -0.53257591 0
-2.6994693 -2.2909842 -0.53441477 0
-2.4748542 -2.31721 -0.52536839 0
-2.280983 -2.318465 -0.55271542 0
-2.1065092 -2.2790592 -0.52904409 0
-1.8977914 -2.3374009 -0.53812128 0
-1.6704355 -2.2979095 -0.53795362 0
-1.5031742 -2.2913153 -0.5414421 0
-1.2618899 -2.2885098 -0.53980672 0
-1.0915314 -2.3064725 -0.55366534 0
-0.87599182 -2.3319838 -0.53585726 0
-0.7343201 -2.2885954 -0.53524524 0
-0.49581724 -2.3261986 -0.55019319 0
-0.29385707 -2.2981961 -0.55031896 0
-0.11558187 -2.3007481 -0.53722143 0
0.085143916 -2.2603524 -0.53447908 0
0.29678863 -2.2519166 -0.54102963 0
0.52899754 -2.2796092 -0.52630627 0
0.68126822 -2.3235538 -0.53434646 0
0.92826807 -2.312011 -0.52043247 0
1.1360484 -2.320627 -0.52457684 0
1.2779574 -2.3321097 -0.52858198 0
1.4914867 -2.3274684 -0.53913116 0
1.7242754 -2.3137822 -0.52417493 0
1.8578262 -2.3068027 -0.52503544 0
2.0976417 -2.3053112 -0.5374217 0
2.2798254 -2.2885518 -0.52430195 0
2.5828102 -2.2447739 -0.54055274 0
2.6866999 -2.2946851 -0.51417398 0
2.8173437 -2.2542498 -0.50154638 0
3.0433307 -2.2550843 -0.50980359 0
3.2775989 -2.2956619 -0.54205704 0
3.4562132 -2.399713 -0.50418162 0
3.7629266 -2.35905 -0.51025534 0
3.9049516 -2.3721838 -0.51653475 0
4.1045761 -2.2739282 -0.50531632 0
4.3668785 -2.2489166 -0.52025342 0
4.43361 -2.3556857 -0.54075497 0
4.6617198 -2.3304157 -0.53253824 0
4.8507042 -2.2594666 -0.49212596 0
5.057991 -2.3513536 -0.52661437 0
5.3164496 -2.3434873 -0.51933575 0
5.8715582 -2.2689328 -0.50730389 0
-7.2863083 -2.0839324 -0.54401028 0
-7.0594344 -2.1020434 -0.5627293 0
-6.9000821 -2.06007 -0.55977798 0
-6.6762867 -2.1241884 -0.5312826 0
-6.5274849 -2.0866182 -0.55244666 0
-6.0812535 -2.0968859 -0.54646844 0
-5.8944659 -2.1385865 -0.53506345 0
-5.6829872 -2.079098 -0.53217995 0
-5.4875302 -2.1357949 -0.53695285 0
-5.2959042 -2.0447235 -0.53411108 0
-5.0789065 -2.1040928 -0.54351139 0
-4.9247718 -2.092443 -0.5391832 0
-4.7068858 -2.0857418 -0.53430945 0
-4.516778 -2.1042104 -0.52976298 0
-4.2995005 -2.0895503 -0.53960764 0
-4.0979133 -2.128731 -0.53495198 0
-3.8907883 -2.1217139 -0.53617084 0
-3.6878076 -2.1536765 -0.5331201 0
-3.5235798 -2.1248395 -0.53381556 0
-3.3302739 -2.0885565 -0.53457093 0
-3.128557 -2.1257374 -0.52645725 0
-2.8915961 -2.0725584 -0.5368135 0
-2.7182686 -2.0903494 -0.53747731 0
-2.4904311 -2.083811 -0.53351569 0
-2.2994184 -2.1207292 -0.54016173 0
-2.1310189 -2.1308532 -0.52951926 0
-1.9191114 -2.0923369 -0.54482812 0
-1.7063272 -2.1237974 -0.53610784 0
-1.4995582 -2.1176119 -0.52911562 0
-1.3073457 -2.1168425 -0.54233128 0
-1.1117755 -2.0730703 -0.53522676 0
-0.91168988 -2.0435898 -0.52936858 0
-0.66621584 -2.1129601 -0.53809446 0
-0.49954069 -2.0795207 -0.53396642 0
-0.28977999 -2.1156576 -0.54095227 0
-0.11413956 -2.101094 -0.54486316 0
0.111851 -2.0876379 -0.52719212 0
0.30216694 -2.098084 -0.5346117 0
0.49680361 -2.0408289 -0.53918916 0
0.69780225 -2.0617409 -0.53640163 0
0.88278365 -2.1154871 -0.52725458 0
1.0785186 -2.0700016 -0.50883222 0
1.3015958 -2.0960128 -0.52849913 0
1.4989144 -2.0745745 -0.54237992 0
1.6850517 -2.093698 -0.5223192 0
1.8905828 -2.0780811 -0.51764685 0
2.1074746 -2.0980539 -0.52835262 0
2.3076043 -2.1142442 -0.51915991 0
2.4996476 -2.1079404 -0.4956038 0
2.7151022 -2.1334178 -0.51210332 0
2.8765204 -2.0966356 -0.5285002 0
3.0890579 -2.0755353 -0.51113689 0
3.2722046 -2.1499259 -0.52714962 0
3.4846003 -2.0830829 -0.51581281 0
3.6399913 -2.0823665 -0.50718188 0
3.9085121 -2.143172 -0.5259884 0
4.0908556 -2.0645936 -0.51827729 0
4.3429708 -2.0479796 -0.50838095 0
4.4913249 -2.0842609 -0.51728004 0
4.7958202 -2.0941889 -0.53167605 0
5.1562786 -2.191329 -0.52905369 0
-7.2575474 -1.9229683 -0.53237116 0
-7.0787988 -1.911768 -0.56042922 0
-6.9238129 -1.9000988 -0.56814682 0
-6.692225 -1.9015179 -0.55761784 0
-6.4859824 -1.882898 -0.53633755 0
-6.3047585 -1.9003263 -0.54803413 0
-6.1358466 -1.8995422 -0.55324858 0
-5.9217005 -1.9055891 -0.55199766 0
-5.7153826 -1.8697174 -0.54199255 0
-5.5352612 -1.8909016 -0.54028243 0
-5.3069067 -1.8910291 -0.53948557 0
-5.1013222 -1.9245061 -0.52584791 0
-4.897676 -1.9006288 -0.53731716 0
-4.7301645 -1.8878349 -0.53000486 0
-4.5107441 -1.8889748 -0.52632195 0
-4.2658982 -1.8809416 -0.52106941 0
-4.1004996 -1.9199915 -0.53053045 0
-3.9074731 -1.8684633 -0.5373944 0
-3.7103195 -1.8631935 -0.52962822 0
-3.473578 -1.9453838 -0.52695704 0
-3.2869518 -1.9403697 -0.53388935 0
-3.082644 -1.913579 -0.53951156 0
-2.9286869 -1.8634624 -0.54339606 0
-2.6724732 -1.9209776 -0.52793419 0
-2.4991803 -1.8997602 -0.52959979 0
-2.3142583 -1.9163387 -0.53441072 0
-2.1180329 -1.9116225 -0.52810091 0
-1.9377562 -1.8925705 -0.54197228 0
-1.7005135 -1.9057534 -0.53335291 0
-1.5201718 -1.8648392 -0.55520773 0
-1.2956294 -1.9175488 -0.53450036 0
-1.1200932 -1.8806833 -0.55500418 0
-0.93836069 -1.9400073 -0.55099154 0
-0.72394794 -1.887907 -0.54596728 0
-0.51095968 -1.8970861 -0.54409993 0
-0.29355034 -1.8804722 -0.54057389 0
-0.10878372 -1.9164902 -0.53180802 0
0.06622608 -1.9195434 -0.52383298 0
0.2805196 -1.9011432 -0.53614032 0
0.49555883 -1.9206381 -0.53577739 0
0.70198774 -1.9009085 -0.52368635 0
0.89650714 -1.9081713 -0.52497834 0
1.1304146 -1.8406473 -0.51680398 0
1.3290484 -1.9094834 -0.53545189 0
1.4675777 -1.8648688 -0.5206852 0
1.7361302 -1.886554 -0.53281057 0
1.9225508 -1.9737369 -0.51588696 0
2.0817475 -1.8708464 -0.52070755 0
2.2959759 -1.8784872 -0.52999228 0
2.5418663 -1.8943321 -0.52250302 0
2.6796637 -1.9026208 -0.52484345 0
2.9684401 -1.9008642 -0.53069645 0
3.1531057 -1.8228781 -0.52069747 0
3.3220673 -1.8776764 -0.51772392 0
3.4972255 -1.885956 -0.50543404 0
3.7661936 -1.9099692 -0.52824938 0
3.9189837 -1.8444582 -0.50346798 0
4.1170626 -1.9019871 -0.51823556 0
4.3121557 -1.8626295 -0.50770473 0
4.4154844 -1.8920707 -0.52951372 0
4.668952 -1.9382734 -0.54340452 0
5.5958209 -1.9543161 -0.47932228 0
5.6325588 -1.9230399 -0.49146956 0
5.9985332 -1.9063313 -0.4995603 0
6.462749 -1.8274868 -0.53238875 0
-7.2952995 -1.7354248 -0.58864272 0
-7.0804381 -1.727355 -0.56744784 0
-6.8949614 -1.7120804 -0.5583545 0
-6.7359366 -1.7104912 -0.53572822 0
-6.5067186 -1.7081575 -0.55553246 0
-6.3064632 -1.688285 -0.54344982 0
-6.1212096 -1.6926906 -0.55070961 0
-5.8870649 -1.6720636 -0.55412501 0
-5.6840868 -1.7009382 -0.54253161 0
-5.4568195 -1.7502872 -0.53503871 0
-5.298358 -1.6910156 -0.53310138 0
-5.1615214 -1.7364336 -0.5361678 0
-4.8973413 -1.7021561 -0.53950542 0
-4.6589789 -1.6654457 -0.51168048 0
-4.5178347 -1.6445938 -0.55634904 0
-4.2202601 -1.6948111 -0.51743054 0
-4.091907 -1.6978115 -0.52846146 0
-3.8738368 -1.7007288 -0.54099703 0
-3.6937897 -1.6952654 -0.5334909 0
-3.4855137 -1.6886742 -0.52370441 0
-3.3098733 -1.6988198 -0.54446024 0
-3.1390147 -1.6854292 -0.53123182 0
-2.8934102 -1.6949329 -0.54472649 0
-2.6812999 -1.7091383 -0.53203797 0
-2.4978447 -1.7118762 -0.53577036 0
-2.2713225 -1.7545837 -0.52577573 0
-2.1155999 -1.6931669 -0.53956908 0
-1.8968871 -1.7059966 -0.53165269 0
-1.7078739 -1.7034907 -0.53573841 0
-1.4817476 -1.6968566 -0.53653657 0
-1.2718258 -1.7183061 -0.54456443 0
-1.1068244 -1.708366 -0.54621011 0
-0.88411003 -1.711358 -0.5470621 0
-0.67564207 -1.676079 -0.54302496 0
-0.50569624 -1.6971008 -0.54567254 0
-0.30648315 -1.6886942 -0.53378677 0
-0.062188584 -1.7032588 -0.53284061 0
0.051561177 -1.6337404 -0.53326815 0
0.27955434 -1.7183069 -0.53272194 0
0.52010059 -1.6573924 -0.53950095 0
0.71461129 -1.6735461 -0.52910972 0
0.87187177 -1.718354 -0.53228062 0
1.0607202 -1.7530589 -0.51454371 0
1.2775732 -1.6905836 -0.51702654 0
1.4845011 -1.6637557 -0.52937055 0
1.6884983 -1.7123476 -0.52673423 0
1.895746 -1.7351034 -0.52317035 0
2.149534 -1.7144132 -0.52308607 0
2.3497691 -1.6566511 -0.45424628 0
2.482621 -1.6813363 -0.49451241 0
2.6850362 -1.7349055 -0.53192157 0
2.8960962 -1.6409688 -0.52315634 0
3.1177883 -1.7328544 -0.53545529 0
3.3256736 -1.686335 -0.52525604 0
3.4910748 -1.7150372 -0.52602047 0
3.6728008 -1.6589836 -0.51545447 0
3.8947706 -1.6955935 -0.52593309 0
4.1187997 -1.6732104 -0.51579469 0
4.3005199 -1.6670808 -0.45457751 0
4.5057869 -1.7116413 -0.53342509 0
4.787786 -1.6743194 -0.52399695 0
4.9185219 -1.6633961 -0.53969228 0
5.0406885 -1.7360957 -0.50768244 0
5.2578197 -1.6844409 -0.50581646 0
5.5056353 -1.7312919 -0.49417838 0
5.7388372 -1.6396153 -0.48954484 0
5.8438587 -1.7062001 -0.51238143 0
6.1050792 -1.7102815 -0.49325457 0
6.2287655 -1.6164957 -0.41651565 0
6.4526854 -1.7239355 -0.4502281 0
-7.2663407 -1.4534611 -0.56134963 0
-7.0630817 -1.4273583 -0.55600899 0
-6.9183288 -1.4922501 -0.53457183 0
-6.6903629 -1.4951191 -0.56201762 0
-6.5339823 -1.4749464 -0.54928726 0
-6.3289418 -1.5265822 -0.51615423 0
-6.1285 -1.4562149 -0.54958194 0
-5.8750763 -1.5225487 -0.51596189 0
-5.7293415 -1.4503738 -0.56031477 0
-5.5163641 -1.5171127 -0.54356682 0
-5.2740645 -1.4829454 -0.53489846 0
-5.1135831 -1.5051954 -0.52897382 0
-4.8872008 -1.5061755 -0.53707737 0
-4.7151856 -1.5461633 -0.52009082 0
-4.5167475 -1.5402237 -0.53720844 0
-4.2992887 -1.4777428 -0.53639174 0
-4.1347694 -1.4861516 -0.53067046 0
-3.897485 -1.5023271 -0.52735072 0
-3.6587372 -1.5062907 -0.54421973 0
-3.5442483 -1.5187708 -0.53471488 0
-3.2696307 -1.5056561 -0.53944999 0
-3.0825183 -1.4892241 -0.53352147 0
-2.895891 -1.5034317 -0.53165889 0
-2.6710744 -1.4709793 -0.5397675 0
-2.5137784 -1.5103438 -0.52873766 0
-2.3186812 -1.5027382 -0.54684544 0
-2.1369927 -1.5157539 -0.53797746 0
-1.908291 -1.5257317 -0.53068244 0
-1.703313 -1.5299075 -0.54721612 0
-1.48806 -1.5184596 -0.54211873 0
-1.3160675 -1.4972657 -0.53480113 0
-1.1160071 -1.5120795 -0.53982693 0
-0.89128208 -1.4900742 -0.52987367 0
-0.69357502 -1.5308063 -0.53269529 0
-0.48599207 -1.5193607 -0.54670352 0
-0.30889785 -1.5086578 -0.54299146 0
-0.081242539 -1.5208032 -0.53403819 0
0.096341014 -1.5400598 -0.54290974 0
0.34513935 -1.5031831 -0.54594743 0
0.51460201 -1.487304 -0.52419722 0
0.70057511 -1.4809945 -0.54491758 0
0.92792886 -1.4790018 -0.52576733 0
1.1174775 -1.4171448 -0.53171229 0
1.3298814 -1.5219722 -0.50927669 0
1.5389075 -1.51178 -0.52225071 0
1.7107718 -1.4263561 -0.53535932 0
1.9161257 -1.488462 -0.51691705 0
2.0823166 -1.5081365 -0.52769667 0
2.3373265 -1.5258995 -0.4662787 0
2.5054083 -1.5598825 -0.53861338 0
2.7820928 -1.5405269 -0.53510547 0
2.9250612 -1.5522524 -0.49579301 0
3.0748987 -1.5390512 -0.50189698 0
3.3320794 -1.5368742 -0.51240259 0
3.460654 -1.5344161 -0.51692206 0
3.7080309 -1.5505489 -0.51429087 0
3.8878229 -1.4452758 -0.50457221 0
4.0480151 -1.5087532 -0.51813745 0
4.3369303 -1.5296681 -0.46620911 0
4.5521746 -1.5400535 -0.53370386 0
4.7368116 -1.4187133 -0.49739259 0
4.9857149 -1.5903977 -0.51695794 0
5.3342361 -1.5060526 -0.49496779 0
5.5492544 -1.4560847 -0.49213234 0
5.7590952 -1.4604957 -0.50086659 0
6.198801 -1.5721183 -0.47985271 0
6.2068691 -1.5772645 -0.41092366 0
6.4546065 -1.4930856 -0.51504087 0
-7.3187428 -1.2972664 -0.51775306 0
-7.1201038 -1.325218 -0.5146814 0
-6.9543319 -1.2595588 -0.51000035 0
-6.7612276 -1.305213 -0.5500958 0
-6.4960527 -1.276969 -0.56540048 0
-6.3191276 -1.3189337 -0.54842079 0
-6.0947566 -1.2291051 -0.52179742 0
-5.9086795 -1.3133749 -0.55356681 0
-5.7401719 -1.2710851 -0.54395169 0
-5.4446564 -1.2326262 -0.5544858 0
-5.3086672 -1.3204538 -0.55484837 0
-5.1128173 -1.3065405 -0.54569143 0
-4.8724103 -1.2410462 -0.52879488 0
-4.6821113 -1.3032548 -0.54447007 0
-4.4467115 -1.3484271 -0.5446074 0
-4.3260117 -1.2935686 -0.54430473 0
-4.103466 -1.2984178 -0.53132159 0
-3.9343474 -1.2649305 -0.52467942 0
-3.6903303 -1.3034434 -0.53856605 0
-3.4845805 -1.3008721 -0.52921075 0
-3.3131711 -1.3127843 -0.53279245 0
-3.1143367 -1.252538 -0.53413022 0
-2.9069967 -1.3009228 -0.54036516 0
-2.6786461 -1.3214971 -0.53252947 0
-2.5570881 -1.3218541 -0.52862495 0
-2.3159709 -1.2805957 -0.54226166 0
-2.0867901 -1.2968903 -0.54295629 0
-1.8865398 -1.3202269 -0.53105056 0
-1.6746558 -1.2768852 -0.54582274 0
-1.4992459 -1.2975718 -0.54029942 0
-1.3017647 -1.2935746 -0.54188114 0
-1.0973839 -1.300215 -0.53896642 0
-0.89402604 -1.3096887 -0.538279 0
-0.71673548 -1.3071988 -0.54261488 0
-0.4926433 -1.3000745 -0.5524295 0
-0.32203314 -1.311446 -0.53197479 0
-0.12624772 -1.2777196 -0.53612244 0
0.04468156 -1.3526167 -0.54705083 0
0.27717364 -1.3039151 -0.5225513 0
0.53397417 -1.2382224 -0.52519077 0
0.68635172 -1.3127456 -0.54385078 0
0.90690362 -1.2990668 -0.53067619 0
1.0615098 -1.2929293 -0.52132547 0
1.2486879 -1.3354074 -0.52180588 0
1.5014536 -1.3237858 -0.52578163 0
1.6962763 -1.2259417 -0.50123435 0
1.9322609 -1.2856297 -0.5179038 0
2.0846553 -1.3282863 -0.50779074 0
2.3222969 -1.2877851 -0.52246201 0
2.5995584 -1.390259 -0.54013294 0
2.6606719 -1.3096893 -0.50096691 0
2.8399198 -1.2461243 -0.50719124 0
3.1029391 -1.2833214 -0.5213846 0
3.3510158 -1.2051167 -0.53591639 0
3.5210257 -1.3181607 -0.52532679 0
3.6875498 -1.2980081 -0.5085057 0
4.2297263 -1.2972538 -0.50221956 0
4.4798169 -1.2969939 -0.49804592 0
4.9075975 -1.2544659 -0.51029593 0
5.1769433 -1.3456432 -0.49830016 0
5.4507165 -1.3786142 -0.49634081 0
5.6725135 -1.3047379 -0.52837867 0
5.9046469 -1.3311071 -0.51311767 0
-7.3282804 -1.0682434 -0.51693898 0
-7.1152611 -1.0755903 -0.48576945 0
-6.919632 -1.0801307 -0.55910498 0
-6.6897259 -1.1039193 -0.54260421 0
-6.5096803 -1.1068201 -0.55351895 0
-6.2879658 -1.1250728 -0.56874865 0
-6.1259155 -1.1056657 -0.54937273 0
-5.8789229 -1.0660896 -0.55176264 0
-5.6676397 -1.0646983 -0.55722845 0
-5.4727769 -1.1279234 -0.55422395 0
-5.2479854 -1.0919302 -0.48007029 0
-5.1437187 -1.0950124 -0.47893474 0
-4.9221458 -1.1130375 -0.51620013 0
-4.6967249 -1.1079779 -0.53012627 0
-4.4635201 -1.1105294 -0.55080473 0
-4.3020759 -1.1810335 -0.51938874 0
-4.080616 -1.0782758 -0.52117264 0
-3.8887887 -1.1173601 -0.55590677 0
-3.7111769 -1.1340282 -0.53237957 0
-3.4890988 -1.0854105 -0.53693485 0
-3.3208427 -1.1163859 -0.52422553 0
-3.0695291 -1.0957177 -0.53871137 0
-2.9045882 -1.1298274 -0.53062272 0
-2.7427995 -1.0945944 -0.54514617 0
-2.5012362 -1.0889839 -0.52643967 0
-2.2872241 -1.1274852 -0.56166464 0
-2.0787635 -1.0898498 -0.53395504 0
-1.8927892 -1.1013205 -0.53268158 0
-1.7603308 -1.0911894 -0.54573274 0
-1.5152285 -1.0763017 -0.54171252 0
-1.3014678 -1.0833272 -0.54348332 0
-1.0944793 -1.0479618 -0.54209 0
-0.92291671 -1.0747782 -0.53592271 0
-0.72247541 -1.1067474 -0.54184693 0
-0.47905523 -1.0903563 -0.53303677 0
-0.29302374 -1.1296701 -0.53864872 0
-0.097476855 -1.0763624 -0.5509584 0
0.080005892 -1.1099594 -0.53322452 0
0.25845051 -1.1047577 -0.53789824 0
0.56592894 -1.0817859 -0.52143586 0
0.69490194 -1.1195484 -0.5378387 0
0.92391109 -1.0958508 -0.53929889 0
1.0902516 -1.1213578 -0.52131814 0
1.3212067 -1.1018492 -0.53667849 0
1.4841202 -1.058314 -0.53449219 0
1.6726978 -1.1012137 -0.51761907 0
1.9251153 -1.1203089 -0.53188038 0
2.0861163 -1.0605803 -0.52159125 0
2.291455 -1.1187277 -0.52021569 0
2.5107267 -1.1293719 -0.51430392 0
2.6304245 -1.0928974 -0.54261827 0
2.968612 -1.1501229 -0.51738656 0
3.1187334 -1.0826299 -0.53463429 0
3.3239088 -1.0897245 -0.51503563 0
3.5487738 -1.0328422 -0.51873648 0
3.715687 -1.0688965 -0.53598219 0
3.899734 -1.1022079 -0.51500046 0
4.0859613 -1.055321 -0.5190295 0
4.2943673 -1.0791075 -0.52040172 0
4.4517522 -1.0283451 -0.50872773 0
4.7765369 -1.1826496 -0.53300744 0
4.8262835 -1.0655144 -0.53063583 0
5.074717 -1.1855311 -0.51541471 0
5.6405473 -1.1865785 -0.48950964 0
-7.3097291 -0.88604349 -0.54279834 0
-7.1139646 -0.9507063 -0.51113719 0
-6.9184384 -0.93067598 -0.55156904 0
-6.699039 -0.89532095 -0.56059366 0
-6.5122967 -0.88354248 -0.54293287 0
-6.2843428 -0.91377437 -0.54719204 0
-6.1142602 -0.92444664 -0.53381377 0
-5.9280076 -0.88861048 -0.5716778 0
-5.7397017 -0.90468907 -0.54311603 0
-5.501214 -0.90737057 -0.55458915 0
-5.2469964 -0.96028537 -0.4910025 0
-5.1510134 -0.96293038 -0.50211036 0
-4.888763 -0.8720026 -0.54203933 0
-4.7373815 -0.93689752 -0.53120404 0
-4.4881401 -0.92128432 -0.52835822 0
-4.3152552 -0.9276554 -0.5381211 0
-4.0686264 -0.90795583 -0.53323853 0
-3.8664303 -0.88181078 -0.5461548 0
-3.6883404 -0.90805846 -0.52159917 0
-3.5473175 -0.89999408 -0.5325008 0
-3.2937224 -0.91602677 -0.53398073 0
-3.1240501 -0.89895767 -0.55446225 0
-2.9090195 -0.94579762 -0.53671616 0
-2.7087855 -0.91094077 -0.52222437 0
-2.5488145 -0.94379061 -0.53360009 0
-2.3001151 -0.89379781 -0.54075849 0
-2.086544 -0.91526967 -0.53190225 0
-1.911432 -0.86735749 -0.53109634 0
-1.6812273 -0.91545528 -0.52477282 0
-1.486604 -0.9117707 -0.5443719 0
-1.3021802 -0.91515565 -0.54464716 0
-1.0963862 -0.89603096 -0.5430367 0
-0.91198802 -0.90018684 -0.54627085 0
-0.68559861 -0.90209788 -0.54142356 0
-0.49318272 -0.89256668 -0.56826025 0
-0.2604157 -0.88107795 -0.55902421 0
-0.12953416 -0.86098307 -0.53839165 0
0.16288674 -0.88390654 -0.5424273 0
0.26261705 -0.89324641 -0.54033297 0
0.50328916 -0.85800743 -0.5329079 0
0.7417596 -0.84774446 -0.53123337 0
0.86495364 -0.90772116 -0.52179152 0
1.0903263 -0.95890629 -0.51533109 0
1.3113841 -0.87408483 -0.54047132 0
1.5218939 -0.94950283 -0.52115422 0
1.7178127 -0.86442339 -0.53054166 0
1.8859736 -0.9359417 -0.51319134 0
2.0479171 -0.86857337 -0.52007544 0
2.3410015 -0.83640563 -0.46762916 0
2.503123 -0.90322274 -0.50643092 0
2.7097092 -0.9287979 -0.5259198 0
2.8946507 -0.97975928 -0.51981676 0
3.1485312 -0.86488163 -0.53064156 0
3.3195112 -0.87838268 -0.52148765 0
3.4938076 -0.85227108 -0.51636338 0
3.6332309 -0.90569884 -0.51657957 0
3.8953559 -0.97218066 -0.52305168 0
4.1161189 -0.8502149 -0.52861255 0
4.2939391 -0.83031011 -0.47821128 0
4.444458 -0.92960262 -0.49449497 0
4.835041 -0.94362187 -0.53908604 0
5.1913834 -0.87770855 -0.50200719 0
5.8516188 -0.85187531 -0.49418926 0
6.0887995 -0.85604131 -0.49688751 0
-7.2738748 -0.719666 -0.57208854 0
-7.0681129 -0.70685029 -0.57607633 0
-6.8756027 -0.69324815 -0.565108 0
-6.7150598 -0.69891667 -0.55412793 0
-6.5211096 -0.69295335 -0.55677742 0
-6.3341732 -0.70595914 -0.56395096 0
-6.1118536 -0.70195532 -0.53585488 0
-5.9848366 -0.66909742 -0.55579013 0
-5.7462783 -0.69416773 -0.545295 0
-5.5257268 -0.6740461 -0.55101353 0
-5.2485633 -0.76411349 -0.56641454 0
-5.114831 -0.71096724 -0.52951783 0
-4.8875556 -0.70606178 -0.51626897 0
-4.6764941 -0.68221152 -0.54746956 0
-4.4642353 -0.71100026 -0.5346595 0
-4.3384666 -0.75825006 -0.52279782 0
-4.1202478 -0.7407946 -0.526456 0
-3.9763458 -0.71191144 -0.55088949 0
-3.6605358 -0.69038773 -0.52839887 0
-3.4772484 -0.7178852 -0.53357261 0
