# .PCD v0.7 - Point Cloud Data file format
VERSION 0.7
FIELDS x y z intensity
SIZE 4 4 4 4
TYPE F F F F
COUNT 1 1 1 1
WIDTH 1454
HEIGHT 1
VIEWPOINT 0 0 0 1 0 0 0
POINTS 1454
DATA ascii
-6.9879847 3.0218525 1.3016896 0
-6.4977307 3.0259438 1.3202109 0
-6.3039699 3.0028191 1.2866445 0
-5.6985559 3.0276074 1.389802 0
-5.2096615 3.1641355 1.2504376 0
-5.1798563 3.1043243 1.3179718 0
-4.8223224 3.1705666 1.3056087 0
-3.8123226 3.1175485 1.3311136 0
-3.7324569 3.0381079 1.2974632 0
-2.9317958 3.0501549 1.331195 0
-2.7035301 3.1296844 1.2939758 0
4.1878624 3.0977533 1.288866 0
4.2587996 3.0795629 1.3208452 0
4.4176989 3.0866835 1.2797838 0
5.7358527 3.0121582 1.3918788 0
5.8839717 3.0771511 1.3156713 0
6.1015191 3.0361359 1.3569336 0
6.9210701 3.0409558 1.3106539 0
7.1435933 3.0257442 1.2348675 0
7.2286448 3.1338995 1.324257 0
7.4304399 3.0117719 1.2960862 0
7.7556977 3.0625463 1.2882246 0
7.9598665 3.1909525 1.3489714 0
8.257618 3.0503886 1.3116517 0
8.5177383 3.192075 1.2439281 0
8.7896538 3.1337516 1.2197903 0
8.8709478 3.0974345 1.3051627 0
-2.8619201 3.3979671 1.3389621 0
-2.7096627 3.2433105 1.2961169 0
4.20467 3.2756872 1.2086278 0
4.4296689 3.3180566 1.2795129 0
8.5841455 3.200042 1.2116383 0
-2.8515725 3.5194292 1.2467597 0
4.347013 3.5151498 1.3234394 0
4.4877787 3.7387455 1.2835802 0
-2.7339926 3.805469 1.2443426 0
-2.7478518 4.1987586 1.2531527 0
4.2102189 4.0725727 1.32962 0
4.4799967 4.0784955 1.2683449 0
-2.744293 4.3399005 1.2951163 0
0.82265162 4.2591772 1.2939911 0
4.1971493 4.3165793 1.2187045 0
-2.7674081 4.5771523 1.2844957 0
4.632329 4.4623203 1.2429595 0
-2.8718696 4.6077189 1.2972105 0
4.198885 4.6002431 1.397267 0
4.2467871 4.6807871 1.2559793 0
4.1946115 4.9406085 1.338455 0
-2.8948865 5.0385809 1.3588614 0
-2.754889 5.0438089 1.3873109 0
4.3374515 5.0280943 1.2944314 0
-2.8747511 5.3446054 1.3464096 0
4.3704815 5.3408365 1.2627604 0
-2.8286693 5.486485 1.304099 0
-2.7576282 5.5412054 1.2876276 0
-2.0544581 5.5302238 1.2337468 0
-0.45036983 5.4725771 1.2282636 0
-0.38912845 5.4643931 1.3079424 0
-0.13263297 5.4661484 1.323058 0
0.88472414 5.4993982 1.2606301 0
2.4206214 5.4931078 1.2883322 0
3.3920336 5.5022163 1.3194784 0
3.4006267 5.4891834 1.2844511 0
3.6957378 5.5498505 1.2108243 0
4.1387944 5.5725307 1.3456202 0
4.2857785 5.5162277 1.3022813 0
4.646678 5.5597582 1.2861331 0
-2.688683 5.6258402 1.279954 0
-1.9647716 5.6539402 1.2411172 0
-0.63238144 5.6279273 1.2380179 0
-0.59562254 5.6448445 1.2624016 0
-0.27364132 5.6385665 1.3273171 0
-0.098166704 5.6545434 1.2785752 0
1.1254115 5.6989598 1.2704895 0
1.2379444 5.6564035 1.3821183 0
1.7395499 5.6529145 1.297062 0
3.0467486 5.6723752 1.2900467 0
4.0142398 5.6577768 1.2816852 0
4.2504501 5.607182 1.3031108 0
4.5379877 6.5604258 1.2479749 0
4.6422024 6.457479 1.3192673 0
-9.7406187 -5.6333284 1.4890863 0
-8.4568653 -5.6016016 1.4081091 0
-5.9142022 -5.6050901 1.4709235 0
1.2948248 -5.6001773 1.4600232 0
1.7976465 -5.6094871 1.5885848 0
5.9534779 -5.6390004 1.4682511 0
-9.6902771 -5.5357161 1.4991075 0
-9.0771656 -5.4820886 1.5355976 0
-8.8319092 -5.4803343 1.4136652 0
-8.5741882 -5.4860134 1.5268104 0
-7.8397479 -5.5254369 1.4151238 0
-7.6369338 -5.4672308 1.4771531 0
-7.497468 -5.5206442 1.4935389 0
-7.0756216 -5.4546738 1.5531117 0
-3.0284815 -5.584321 1.4654373 0
-2.9308786 -5.4817085 1.429083 0
-2.4667687 -5.4972496 1.5442257 0
-2.280551 -5.5166345 1.4857459 0
-2.1755598 -5.5338855 1.4533855 0
-1.9350109 -5.5155125 1.4428381 0
-1.6563098 -5.4649358 1.5477976 0
-1.5356168 -5.4734135 1.4740568 0
-1.2658241 -5.4585209 1.5108809 0
-1.149098 -5.4661264 1.5231409 0
-0.93432546 -5.4751825 1.4778574 0
-0.69263911 -5.5107012 1.4562089 0
-0.56026506 -5.4109244 1.5336821 0
-0.27416864 -5.579556 1.4904693 0
-0.076413952 -5.4344192 1.5597305 0
0.13694732 -5.4469151 1.4732877 0
0.28748679 -5.4421406 1.4933262 0
0.43925649 -5.4787045 1.4784815 0
0.68109655 -5.4420037 1.5270252 0
0.86223549 -5.452199 1.4980747 0
1.3509256 -5.4221683 1.522613 0
1.4422255 -5.4134479 1.550037 0
1.7569036 -5.4664812 1.4638442 0
1.8671329 -5.4493608 1.5148679 0
2.0407391 -5.5270219 1.5625209 0
2.3109543 -5.4678392 1.4504375 0
2.5117249 -5.4954042 1.4891632 0
3.0776181 -5.4731646 1.5274646 0
3.3003409 -5.4807539 1.5278234 0
3.5191257 -5.5417142 1.5150189 0
3.7350729 -5.4630966 1.5376508 0
3.9401979 -5.5363283 1.5860163 0
4.4743199 -5.4496102 1.5040803 0
4.8007421 -5.4613252 1.5085666 0
5.0984082 -5.432055 1.4707218 0
5.98209 -5.5237637 1.4966214 0
6.0376706 -5.446116 1.5230519 0
6.3631473 -5.4291682 1.5373952 0
7.3885059 -5.4395561 1.563436 0
7.4821382 -5.4501495 1.415602 0
7.7578316 -5.4708195 1.4975203 0
7.869792 -5.4703608 1.4241443 0
8.4984875 -5.538506 1.4991314 0
8.7636642 -5.5254431 1.5334433 0
8.8827362 -5.4994617 1.5027336 0
-9.7757101 -5.3947248 1.471212 0
-2.8917797 -5.2674623 1.5024809 0
-2.1776364 -5.2567663 1.4731777 0
-0.55473113 -5.385345 1.5398675 0
1.3602853 -5.3762727 1.5417327 0
1.4282184 -5.3673005 1.5765663 0
4.4480829 -5.391655 1.4742389 0
-2.9015021 -5.0864305 1.4961882 0
-2.6232212 -5.0449796 1.4497786 0
-2.5222275 -5.038661 1.4353738 0
-2.2501576 -5.029994 1.4577887 0
-2.1763039 -5.0728722 1.4594562 0
4.5689321 -5.0366616 1.5984476 0
-9.7440605 -4.8646708 1.4271507 0
-3.0203686 -4.9961462 1.4963034 0
-2.879302 -4.8852682 1.5062438 0
-2.5229418 -4.9884214 1.4347018 0
-10.024698 -4.6154947 1.5340905 0
-9.7070618 -4.7397537 1.4966941 0
-3.1145525 -4.7803798 1.4741856 0
-2.9891291 -4.7738743 1.4082057 0
8.8280926 -4.6189604 1.4516329 0
-10.038274 -4.4994659 1.4642622 0
-2.8356681 -4.5953021 1.4756292 0
4.4836898 -4.4107218 1.4361608 0
8.8374157 -4.5622449 1.5199078 0
9.0255451 -4.4410763 1.5466485 0
-9.7703419 -4.2585626 1.4561954 0
-9.5881329 -4.2417021 1.4369705 0
-3.0544925 -4.3189111 1.4266105 0
4.480319 -4.3618031 1.4864008 0
-3.0763664 -3.8339062 1.4040631 0
-2.8298154 -3.8013694 1.5278347 0
-9.8943214 -3.6855941 1.4706739 0
-9.6454258 -3.6865664 1.4591179 0
-3.0376709 -3.6727512 1.4575496 0
-2.990593 -3.7097652 1.4066559 0
-2.7269564 -3.668083 1.5643365 0
-2.8285043 -3.5703168 1.4863303 0
8.5199604 -3.501848 1.5060676 0
8.6139946 -3.5058322 1.4715627 0
-2.7889647 -3.3534956 1.4949365 0
8.5098991 -3.2856123 1.5266541 0
8.6109009 -3.2744246 1.4792223 0
8.9728832 -3.2288673 1.5166438 0
9.027091 -3.2330246 1.4542341 0
-9.8545198 -3.1475804 1.5211384 0
-2.8890529 -3.0289145 1.5265192 0
8.5261726 -3.1754529 1.4688506 0
8.9765501 -3.1762004 1.5403725 0
9.0142002 -3.0904875 1.4835877 0
-9.8870277 -2.9005432 1.4021515 0
-9.7192173 -2.8263087 1.4526501 0
-2.8608658 -2.859669 1.4932519 0
-2.8373623 -2.7394614 1.4393067 0
-2.7847035 -2.7994547 1.4947793 0
-9.7238159 -2.4311776 1.5485553 0
-9.7069035 -2.2478116 1.456313 0
-0.95607233 -2.247509 1.5907553 0
9.030344 -2.3121862 1.5004218 0
0.74819744 -2.049578 1.4475516 0
0.80445194 -2.1075146 1.4694378 0
7.3485432 -2.0786123 1.4481212 0
8.8168001 -2.1450233 1.5129551 0
0.4829694 -1.8888718 1.4849494 0
0.68524957 -1.9716837 1.5150306 0
0.93916893 -1.9122235 1.5888647 0
1.077914 -1.9211173 1.5237861 0
7.0435324 -1.8495343 1.4963318 0
7.3437877 -1.9518912 1.483902 0
7.641571 -1.9168048 1.4254916 0
8.9668331 -1.8836298 1.5603114 0
0.37535214 -1.6316345 1.488611 0
0.44546747 -1.6640381 1.4648818 0
0.6102314 -1.7116864 1.4840785 0
0.95086956 -1.673687 1.4523711 0
1.1744912 -1.6450062 1.4427404 0
1.2310863 -1.6461383 1.4703361 0
7.0082588 -1.65286 1.4252235 0
-8.6637039 -1.4535459 1.5421362 0
0.36115742 -1.553296 1.5255947 0
0.44971001 -1.5505074 1.4250354 0
1.0796356 -1.5476146 1.4223926 0
6.9610229 -1.5279051 1.4828022 0
8.4916668 -1.5710666 1.4096961 0
8.8885517 -1.4647783 1.4604354 0
-9.9350567 -1.3552977 1.4019718 0
-9.705018 -1.3155416 1.4451684 0
-8.6949158 -1.3872707 1.5873553 0
-4.3463836 -1.398365 1.4693606 0
-2.8644185 -1.257779 1.5919504 0
0.53771448 -1.2822348 1.5072352 0
0.62958956 -1.220421 1.4545643 0
0.86424971 -1.2689108 1.5085818 0
1.1335528 -1.3308972 1.5111563 0
7.148767 -1.2655132 1.501422 0
7.4797549 -1.2931547 1.5399168 0
7.9666109 -1.3107579 1.431179 0
8.0473118 -1.3402549 1.5137138 0
-9.8502712 -1.0540023 1.4734337 0
-6.6045198 -1.0309004 1.4196813 0
-6.5656371 -1.0161203 1.5552186 0
0.43460274 -1.0365421 1.4887549 0
0.87309074 -1.1893715 1.4438014 0
7.4309664 -1.144015 1.4261996 0
7.9922919 -1.1474174 1.4968399 0
8.0282316 -1.1761208 1.4476312 0
-9.8296022 -0.96716136 1.521886 0
-9.6168661 -0.87277085 1.4606425 0
-9.5710573 -0.94667566 1.4826163 0
-6.5897555 -0.97584462 1.4296249 0
0.44583178 -0.97581649 1.5603849 0
7.9309783 -0.95382035 1.4159786 0
-6.4534636 -0.77747947 1.5195887 0
0.46505356 -0.76436532 1.5318576 0
7.9281526 -0.62682647 1.4530653 0
8.0390644 -0.63211101 1.5137701 0
-9.846323 -0.41935951 1.4914409 0
-9.6094913 -0.42612338 1.4371132 0
-9.5585909 -0.47471759 1.4892524 0
-6.5223813 -0.47282094 1.4610392 0
7.108057 -0.50711673 1.5823781 0
7.4954948 -0.47801042 1.5552175 0
7.9633417 -0.53155339 1.4783566 0
8.0102367 -0.51910144 1.4230708 0
-9.8581533 -0.32469064 1.4971968 0
-9.6167459 -0.34877422 1.4692893 0
-9.5908489 -0.39715523 1.4764593 0
-6.8377123 -0.31048042 1.4345646 0
-6.7978783 -0.29920131 1.4073529 0
0.35887766 -0.32462454 1.5128169 0
0.53597879 -0.1647203 1.4871109 0
9.0753126 -0.053372797 1.540182 0
9.0843735 0.066406235 1.47578 0
-9.7214241 0.2302483 1.4031307 0
7.9529314 0.28346276 1.5176193 0
9.0946608 0.31384051 1.4488271 0
-2.8703828 0.55363917 1.4805057 0
-9.8581848 0.75339544 1.4761457 0
-9.7244596 0.76970935 1.5071664 0
-9.5627518 0.77052319 1.505306 0
-2.8691878 0.64036423 1.4755216 0
8.9127731 0.62583905 1.5908977 0
-9.8545456 0.82193977 1.4911466 0
-9.6239433 0.86894208 1.5052949 0
-9.5746164 0.84828573 1.4774323 0
8.8926697 0.94078505 1.5071507 0
9.1033497 0.98882699 1.5268688 0
-9.6162148 1.0374033 1.5975223 0
-9.553875 1.1204886 1.5067029 0
-7.4042668 1.1136678 1.4336214 0
-7.0951147 1.1262552 1.4320827 0
-2.8553944 1.1478455 1.4987453 0
-9.607914 1.2515357 1.4578544 0
-9.5510635 1.2785296 1.5036862 0
-7.479959 1.2963564 1.4387285 0
-7.3444185 1.2918049 1.4899486 0
-7.0326371 1.3297977 1.5145876 0
-6.9650416 1.2858205 1.42831 0
-6.7965384 1.335495 1.494083 0
-6.5536547 1.3400533 1.4704926 0
-6.350059 1.368652 1.456615 0
-5.9898877 1.32511 1.4072351 0
-3.132061 1.2682014 1.5110492 0
-2.8642166 1.2719269 1.5152004 0
9.0520687 1.367028 1.4292362 0
-9.7581711 1.5033566 1.526688 0
-9.1820621 1.5919271 1.5777423 0
-2.8557787 1.596318 1.4053335 0
8.9000187 1.4830034 1.585861 0
-9.6172256 1.7234511 1.4974639 0
-4.8287497 1.6204606 1.4992936 0
-2.8579857 1.690375 1.5292205 0
9.1362591 1.7726197 1.460053 0
-9.6938705 1.9127841 1.5402927 0
-9.5163898 1.9778748 1.5427002 0
-3.8421464 1.9377046 1.4781634 0
-3.7650714 1.9512028 1.5149435 0
-3.1192741 1.8926994 1.4947128 0
-2.8468974 1.9966016 1.451466 0
4.2646203 1.9547951 1.50884 0
-9.7452574 2.0168691 1.5984882 0
-9.4824762 2.0388424 1.5921288 0
-3.81393 2.0090804 1.5420227 0
-3.756259 2.0060732 1.4896456 0
-3.1092253 2.0907631 1.5411491 0
4.2810721 2.01038 1.494907 0
8.7996378 2.1692598 1.597484 0
8.8586102 2.1519992 1.4899185 0
9.0299168 2.0496635 1.4773146 0
-9.7439709 2.2442539 1.5538577 0
-9.5482082 2.234333 1.5246557 0
-3.7768307 2.3246052 1.491546 0
-2.7944503 2.2541165 1.5439167 0
8.7932196 2.2682929 1.5048654 0
8.8330498 2.2887876 1.5751754 0
-9.6760178 2.4402919 1.586331 0
-9.503212 2.5062239 1.5664154 0
4.2834101 2.4134216 1.4887886 0
8.7943506 2.5763631 1.5729517 0
8.8204975 2.4805231 1.5168178 0
-9.7789783 2.65728 1.5494205 0
-9.4931202 2.6981385 1.5625379 0
-5.2240357 2.6902797 1.5119265 0
-5.0740862 2.6641872 1.4085569 0
-4.6368937 2.7044365 1.4410617 0
-3.8961682 2.71088 1.5479107 0
-2.9390497 2.6218228 1.4893844 0
4.2510118 2.6954656 1.5342615 0
-9.7353077 2.8980825 1.4993784 0
-8.6645308 2.9837098 1.5768986 0
-8.2528629 2.9972906 1.5217507 0
-7.4142609 2.8393095 1.4025111 0
-7.3831673 2.8452048 1.4739163 0
-7.0662484 2.9860163 1.5730184 0
-5.8534098 2.9775429 1.5379953 0
-3.7354965 2.9470623 1.5079722 0
-2.9478209 2.9824827 1.5776519 0
4.2738013 2.9699049 1.4944092 0
4.4364977 2.9148488 1.5499616 0
5.3410988 2.9097574 1.5068629 0
5.7834954 2.9587731 1.5740588 0
6.2920542 2.9324822 1.4576533 0
6.8434806 2.9668927 1.4402434 0
7.2875524 2.9944129 1.4363068 0
7.5425377 2.8847232 1.5260348 0
8.8787642 2.9770558 1.481232 0
-9.7085209 3.0694113 1.496695 0
-9.5623484 3.08722 1.4964166 0
-9.2758751 3.0673034 1.550823 0
-8.9819565 3.1199112 1.5052353 0
-8.6374483 3.0135274 1.5334494 0
-8.5273304 3.0312123 1.5593095 0
-8.2815361 3.1019511 1.5161393 0
-8.127759 3.1931746 1.5456885 0
-7.6582079 3.0686312 1.4952368 0
-7.5082159 3.0808668 1.5357008 0
-7.3453245 3.1774182 1.5653909 0
-7.0224228 3.0316424 1.5121149 0
-6.7664919 3.1004276 1.5274322 0
-6.4713945 3.1393044 1.5643357 0
-5.6774139 3.1277061 1.4766037 0
-5.4083624 3.1663706 1.5423623 0
-5.218833 3.1551943 1.4585259 0
-3.8193619 3.1412156 1.4399869 0
-3.7577763 3.0559707 1.5168737 0
-2.9201169 3.0933855 1.4264983 0
-2.7051663 3.1303647 1.5139556 0
4.193243 3.1055176 1.5591949 0
4.2548037 3.0885041 1.4996771 0
4.4432726 3.0699701 1.4933279 0
4.7303305 3.1954341 1.4090841 0
5.5906334 3.0514245 1.4997125 0
6.1972461 3.0624456 1.5064434 0
6.2459974 3.1506836 1.5065601 0
6.5420961 3.1972971 1.5641825 0
7.0724545 3.1323061 1.4920242 0
7.5098724 3.0544763 1.4769769 0
8.4244223 3.0656075 1.5639141 0
8.7007618 3.1360476 1.4360783 0
8.85991 3.0976059 1.5033214 0
-2.7133384 3.2275083 1.4918389 0
2.8720498 3.3633707 1.5956037 0
4.1988926 3.2039812 1.4567908 0
4.4580607 3.252156 1.5378091 0
5.0850277 3.2148151 1.5899283 0
-2.8732769 3.4637783 1.5327517 0
0.3101182 3.517575 1.5988954 0
2.1723685 3.4100215 1.5955184 0
4.413178 3.7936771 1.5373217 0
4.2226791 3.9642835 1.5794927 0
4.4833565 3.8911841 1.4446337 0
4.6204195 3.8564184 1.439077 0
-2.6893454 4.0961275 1.5789967 0
0.7731216 4.0919986 1.5363567 0
0.82702535 4.0794721 1.5491446 0
4.2243261 4.1512308 1.5746689 0
4.4514656 4.0942855 1.4926199 0
-2.8760231 4.2791939 1.5756018 0
1.1039023 4.3176746 1.4683616 0
4.3630166 4.2253895 1.4714421 0
4.2828579 4.4929171 1.486194 0
-2.7240553 4.6951194 1.4647669 0
-2.7721481 4.8483462 1.4536992 0
4.3861318 4.9493656 1.4806693 0
-2.8150756 5.3593364 1.4463543 0
-2.8290584 5.483428 1.5058801 0
-2.7510238 5.5493221 1.4920743 0
-2.2594736 5.4589338 1.5499164 0
-2.1939962 5.4697599 1.5663033 0
-1.7011672 5.5060577 1.4483994 0
-1.5126265 5.4832535 1.504549 0
-0.84465456 5.5296354 1.4540445 0
-0.4471705 5.490984 1.4544096 0
-0.39586678 5.4772763 1.5275908 0
-0.071639419 5.4409428 1.5969756 0
0.6375587 5.4952273 1.5289575 0
1.1739051 5.4561896 1.5947208 0
1.7631538 5.4674344 1.5717435 0
1.8882474 5.473249 1.4510516 0
2.0051794 5.4342308 1.5635402 0
2.406054 5.4098158 1.5363462 0
3.206486 5.4880109 1.4376357 0
3.5461416 5.4985619 1.5939639 0
3.679364 5.5058756 1.4787784 0
4.1735115 5.5714145 1.481473 0
4.2841015 5.5210838 1.5089695 0
4.5922508 5.5621414 1.5324026 0
4.6512685 5.5773573 1.4412233 0
-2.6945026 5.6373606 1.4928108 0
-2.2446027 5.6891646 1.480161 0
-1.5808532 5.6930237 1.5145531 0
-1.3489918 5.6633487 1.5058929 0
-0.97940254 5.6200027 1.5150675 0
-0.75657511 5.6465373 1.488189 0
0.1305685 5.635025 1.5782851 0
1.5486159 5.6800728 1.4393066 0
1.7635436 5.6193323 1.5090879 0
2.0147982 5.6277051 1.4429647 0
2.6758761 5.6604667 1.4592943 0
3.274116 5.6503487 1.5574225 0
3.6945672 5.7300024 1.520517 0
4.0989599 5.6228232 1.4816496 0
2.3090968 6.5259519 1.5144777 0
4.4918852 6.5304966 1.4836087 0
4.6531267 6.4849997 1.4405358 0
-8.772584 -5.607686 1.7269055 0
-6.1036773 -5.6201906 1.7390709 0
-3.0377247 -5.6207447 1.6116798 0
-0.85497451 -5.6004257 1.7930163 0
-0.6971575 -5.6244631 1.6920655 0
-0.032687426 -5.6000948 1.6472368 0
3.295712 -5.6118851 1.7633519 0
5.2670717 -5.6332455 1.636694 0
5.897181 -5.6331134 1.6436086 0
-9.6840801 -5.5336933 1.6889907 0
-9.5728607 -5.569912 1.693064 0
-8.8697767 -5.5328307 1.7185162 0
-8.7104626 -5.4708996 1.6954727 0
-8.49615 -5.4889355 1.738592 0
-8.3276653 -5.5404215 1.6400843 0
-8.1791868 -5.4924097 1.6944624 0
-7.7566824 -5.4740133 1.6644045 0
-7.5955458 -5.5948243 1.6452777 0
-6.8794727 -5.4665227 1.6577358 0
-6.3217216 -5.5422525 1.6999738 0
-2.911509 -5.4972878 1.7218239 0
-2.7285457 -5.4958429 1.7108599 0
-2.5453939 -5.435586 1.7270831 0
-2.1619656 -5.4251156 1.7663909 0
-1.8507109 -5.4672418 1.7611247 0
-1.6472578 -5.4792013 1.7150346 0
-1.5348101 -5.4608607 1.6631075 0
-0.97470039 -5.4327078 1.6008159 0
-0.55783027 -5.4177499 1.6568221 0
-0.092213973 -5.4598932 1.7121211 0
0.10549152 -5.4473729 1.7330066 0
0.29668772 -5.4410038 1.7459421 0
0.4795019 -5.4392767 1.7517444 0
0.67111635 -5.4432535 1.6637582 0
0.92405009 -5.4687028 1.6575841 0
1.07172 -5.5186634 1.6951218 0
1.3362484 -5.4406576 1.6517636 0
1.4746196 -5.4159708 1.6815138 0
1.6975219 -5.4343624 1.7625939 0
1.9409294 -5.4726167 1.6824968 0
2.0651243 -5.4650092 1.7089334 0
2.3025753 -5.5067215 1.7340645 0
2.4577768 -5.4678617 1.6967055 0
2.7771366 -5.4650302 1.6064206 0
2.9446111 -5.4643655 1.6865692 0
3.1659551 -5.4665585 1.6283764 0
3.3180974 -5.5017014 1.6792233 0
3.4886663 -5.522965 1.7064794 0
3.6344943 -5.5053101 1.7593422 0
4.1300144 -5.4609051 1.6238317 0
4.3477602 -5.4905176 1.7018247 0
4.4682598 -5.453692 1.7009561 0
4.7728648 -5.5477591 1.7175394 0
5.0398827 -5.4434552 1.6647459 0
5.5402417 -5.4441042 1.7438035 0
6.3571091 -5.4251256 1.7903156 0
7.1615381 -5.577384 1.742884 0
7.5819526 -5.4409771 1.7090969 0
8.505764 -5.4466562 1.7688305 0
8.7084675 -5.5391908 1.6698 0
8.8728437 -5.4984007 1.715325 0
-9.7331028 -5.3329 1.7132649 0
-2.9383163 -5.3658285 1.7725372 0
-0.54134399 -5.3780937 1.6364123 0
1.3455881 -5.3723874 1.6392716 0
1.4050314 -5.3904047 1.6530735 0
4.4429631 -5.3796277 1.6883698 0
8.9186878 -5.3637557 1.6507113 0
-2.8203394 -5.1369166 1.630163 0
9.0045757 -5.1078148 1.6102314 0
-9.7339554 -4.8266563 1.686307 0
-2.8769181 -4.9109569 1.6280745 0
4.5047441 -4.9018936 1.7130141 0
-10.02073 -4.6276598 1.7675773 0
-9.9808178 -4.6312685 1.6207738 0
-9.7389545 -4.7491212 1.6911072 0
-2.8193836 -4.7370453 1.6804457 0
3.6745038 -4.7363787 1.7557576 0
8.8680592 -4.6762223 1.6690145 0
-10.05346 -4.507225 1.68682 0
-3.0131826 -4.4698954 1.7734791 0
-2.8257284 -4.4755435 1.6975139 0
4.508357 -4.4164348 1.6707494 0
8.8504429 -4.5054908 1.644385 0
-2.8616865 -4.3577895 1.6885949 0
3.6214976 -4.2309766 1.7332127 0
3.8485637 -4.3184309 1.7579867 0
4.4816198 -4.3609304 1.7052596 0
9.0058365 -4.3378034 1.7224344 0
-9.5955296 -4.1732407 1.7929251 0
-2.844075 -4.0864134 1.6837786 0
-2.7796173 -3.6686521 1.7173635 0
8.4966259 -3.6318126 1.6074343 0
8.9276962 -3.6627409 1.7036271 0
-9.8604631 -3.4975996 1.730592 0
-2.967154 -3.5931678 1.7629488 0
-2.7780671 -3.5293152 1.7232978 0
8.5270128 -3.5014162 1.7114145 0
8.5145607 -3.3096387 1.6953198 0
8.6788387 -3.3091199 1.6840105 0
8.9511518 -3.2138159 1.6850415 0
-10.04998 -3.0640416 1.6619455 0
-9.7183132 -3.1132207 1.693984 0
-2.8152566 -3.0957041 1.7445154 0
-2.7846317 -3.0952439 1.6219254 0
8.5253582 -3.1661141 1.7060702 0
8.9011164 -3.1544425 1.7359165 0
9.0156536 -3.1780126 1.6097243 0
-9.6077881 -2.9873002 1.6979274 0
-2.8444002 -2.8433516 1.6576539 0
-2.7969706 -2.8775439 1.7207077 0
8.9325333 -2.9583309 1.7382742 0
-3.1053467 -2.6853511 1.7198364 0
-2.8548391 -2.7928281 1.6746185 0
8.8745403 -2.6110272 1.6694508 0
-9.8631992 -2.4660923 1.7061297 0
-3.078331 -2.5161691 1.7322755 0
-1.128581 -2.4204626 1.741461 0
-0.70996094 -2.5477014 1.7989757 0
-3.1391306 -2.3519979 1.7383227 0
8.8004456 -2.360631 1.7911996 0
9.0069714 -2.2047663 1.6095006 0
-9.6727095 -2.0893621 1.6417216 0
-3.2139945 -2.15604 1.6817331 0
-3.1096852 -2.0867 1.6967441 0
-0.93480515 -2.0391297 1.7444472 0
-0.79648304 -2.1801541 1.7679591 0
8.8113451 -2.147795 1.6409703 0
-3.1330962 -1.8750861 1.6859722 0
0.52286172 -1.8931532 1.6538178 0
7.1650171 -1.9537112 1.6585156 0
-3.0983694 -1.6500131 1.6872648 0
-0.89053917 -1.790236 1.7021223 0
-0.7396431 -1.6866946 1.6933061 0
0.38559008 -1.6063869 1.6148478 0
0.63543701 -1.70116 1.7099708 0
0.84341812 -1.6348358 1.7702689 0
7.3878684 -1.6672167 1.6616957 0
-8.6545343 -1.4255577 1.7742809 0
-3.0724449 -1.4891469 1.7100856 0
-1.0491338 -1.5340326 1.7171535 0
0.41665506 -1.551074 1.73702 0
-7.2101593 -1.3521609 1.7024859 0
-3.078022 -1.2804577 1.694762 0
-2.888792 -1.2686348 1.6869888 0
0.30488396 -1.2129946 1.6229879 0
0.59661722 -1.3035643 1.7924798 0
0.68185043 -1.2075822 1.7029061 0
7.0839648 -1.3390225 1.677104 0
7.2547936 -1.2878226 1.6514232 0
7.9709058 -1.3682801 1.6933814 0
-9.8315468 -1.0321988 1.6468596 0
-9.7822208 -1.0423369 1.6678603 0
-3.1074388 -1.0862944 1.7248437 0
-2.9079618 -1.049118 1.6802003 0
-0.99046803 -1.1322621 1.6987864 0
0.83438373 -1.175621 1.6432879 0
8.0197468 -1.1837106 1.6267834 0
-9.8613806 -0.98487014 1.6709491 0
-9.6072092 -0.90395492 1.6594429 0
-9.5601225 -0.92484176 1.6825041 0
-3.0659084 -0.86426592 1.688455 0
-1.109225 -0.95116436 1.7441037 0
-0.99224758 -0.84974164 1.7834742 0
-7.0432796 -0.71020627 1.7430704 0
-3.1805573 -0.62405491 1.7047031 0
-2.8748226 -0.71472919 1.6653247 0
-1.0257483 -0.75444275 1.7889733 0
8.0396214 -0.62171924 1.6547158 0
-9.712019 -0.42495883 1.6673349 0
-9.5599623 -0.46267465 1.6609941 0
-3.0974188 -0.48352122 1.7047939 0
-2.9053102 -0.48666251 1.6784302 0
0.54771376 -0.51472223 1.7598121 0
7.9843569 -0.54509228 1.6562254 0
8.0064735 -0.50947261 1.7849723 0
-9.8472033 -0.36418381 1.6695892 0
-9.7793589 -0.34319153 1.701189 0
-9.5686131 -0.36025512 1.7119348 0
-3.1322842 -0.28742343 1.6964061 0
-2.9206352 -0.32841253 1.676146 0
8.9729958 -0.22466105 1.7879292 0
9.0381355 -0.27943039 1.7336557 0
-9.6907473 -0.15485543 1.6167606 0
-3.1106966 -0.028886875 1.7225367 0
-1.0676603 -0.026238441 1.7745098 0
9.0571747 -0.14880407 1.7085166 0
-2.8694029 0.14215212 1.7243599 0
8.768486 0.016813174 1.7909293 0
-9.6645794 0.28284633 1.6563213 0
-3.1532428 0.25032929 1.6982208 0
-2.8444896 0.31450331 1.6575907 0
-3.0912848 0.49114442 1.6984019 0
-2.8379889 0.58542919 1.6476067 0
-9.8211689 0.77095008 1.6235762 0
-9.7679005 0.7656008 1.7101339 0
-9.5563221 0.76950002 1.7216597 0
-3.0688725 0.62703013 1.7193242 0
-2.8685992 0.6862281 1.6554787 0
-2.7856157 0.72494435 1.6945391 0
8.7829895 0.69265008 1.7740049 0
8.8361692 0.76918888 1.6631641 0
9.0666361 0.61873341 1.7130283 0
-9.8317032 0.83266199 1.6699384 0
-9.6753712 0.85735291 1.7027406 0
-9.5721149 0.82410794 1.671352 0
-2.8656838 0.87466365 1.6575712 0
-2.7748528 0.80690217 1.7218047 0
8.8525944 0.81079966 1.6144994 0
-9.6013193 1.1737432 1.6087823 0
-9.5589228 1.1664109 1.6801199 0
-2.8889542 1.124945 1.7430277 0
-2.7814064 1.0840275 1.7227656 0
8.9958887 1.0815005 1.68103 0
9.0881081 1.081473 1.7195204 0
-9.5428877 1.2763348 1.6897261 0
-3.1420326 1.2934548 1.6380725 0
-2.8485394 1.3068523 1.6935246 0
-2.7686791 1.2003899 1.7193068 0
8.8441505 1.3094778 1.6957824 0
-9.7617731 1.5018016 1.7036191 0
-9.1663322 1.5555792 1.6698411 0
-3.019217 1.4800005 1.6196381 0
-2.8408518 1.5634573 1.6517509 0
-2.7933018 1.4918232 1.6662469 0
8.8492317 1.4885185 1.6529001 0
9.080637 1.4458134 1.6049579 0
-9.8002901 1.7722621 1.7989641 0
-9.1638031 1.6847929 1.7396762 0
-8.6642532 1.7072198 1.676837 0
-8.5514927 1.7336352 1.7056364 0
-2.888217 1.6681507 1.7123573 0
-2.7865622 1.643796 1.6549937 0
8.8557005 1.652653 1.6627331 0
9.008709 1.6256385 1.6565347 0
-9.7430792 1.9373668 1.6788874 0
-9.4799786 1.9790303 1.6949453 0
-3.8224964 1.9705631 1.6300009 0
-3.7449303 1.9672177 1.6125078 0
-3.0775466 1.9044638 1.6548338 0
-2.8534822 1.9567525 1.6411034 0
4.2633052 1.9502147 1.697601 0
8.9309683 1.9288702 1.6937332 0
-9.7329531 2.0100892 1.7140331 0
-9.4907455 2.0623779 1.7339743 0
-8.4969139 2.0855904 1.7672462 0
-3.6240015 2.0336912 1.6882219 0
-3.0821252 2.068296 1.7378187 0
-2.8821006 2.080195 1.7215495 0
8.861187 2.1154349 1.671569 0
-9.4624271 2.2455325 1.7522053 0
-2.8088038 2.2484179 1.6741467 0
-2.786447 2.2872705 1.7192173 0
4.24722 2.3964629 1.7191963 0
8.7908001 2.2927737 1.6940148 0
8.8491707 2.306565 1.6603978 0
-9.7221956 2.4791756 1.6185181 0
-9.4752865 2.5141745 1.7708433 0
-7.1815619 2.5782199 1.7312832 0
-6.8310008 2.5159111 1.7115862 0
-6.3893142 2.5791888 1.701524 0
-2.909513 2.4609485 1.7243164 0
-9.4681683 2.7061865 1.7128698 0
-6.9367967 2.7917137 1.7729841 0
-6.6751204 2.7303052 1.7221999 0
-6.4975281 2.6266508 1.7060912 0
-6.3332639 2.795768 1.7399247 0
-5.8117766 2.7263248 1.610225 0
-2.8064318 2.660953 1.6912732 0
4.2436733 2.692102 1.757921 0
8.9445333 2.7529659 1.7143878 0
-9.7195396 2.9209232 1.6909231 0
-9.0840969 2.998425 1.6845118 0
-7.1230783 2.9893594 1.6837651 0
-6.6353865 2.9280238 1.7826364 0
-5.7212448 2.8068461 1.7702489 0
-3.6449928 2.9607773 1.7344618 0
-2.9006209 2.9227571 1.6841609 0
-0.79000092 2.9302886 1.7429196 0
-0.40939426 2.9825032 1.7873701 0
0.65831137 2.994524 1.7128516 0
1.8927405 2.956332 1.6806495 0
2.0019813 2.9877207 1.769327 0
2.6081204 2.9831102 1.7062964 0
3.3005424 2.9724176 1.7915055 0
3.7615857 2.9649186 1.6811552 0
4.1267776 2.9541645 1.6646191 0
4.2578387 2.9617817 1.6881828 0
4.4269724 2.9003546 1.6612352 0
5.1667075 2.9096828 1.7277838 0
6.3285336 2.9543107 1.7709863 0
7.5682564 2.9323139 1.705024 0
7.6585746 2.9452491 1.7734623 0
8.8979053 2.9782619 1.7010596 0
-9.7128763 3.0526638 1.7000542 0
-9.5962744 3.0819209 1.6241027 0
-9.274065 3.0653627 1.7589175 0
-9.0857029 3.0361285 1.6801634 0
-8.9177551 3.0271454 1.6565528 0
-8.6829214 3.1649702 1.631907 0
-8.092701 3.0477481 1.605985 0
-7.7603922 3.0027966 1.6142342 0
-7.3849611 3.1177764 1.6474996 0
-6.9652648 3.0373039 1.7100532 0
-6.4325557 3.0348735 1.7549754 0
-5.6803012 3.1476247 1.6997776 0
-3.7278578 3.093956 1.6961111 0
-2.898195 3.0966697 1.7491127 0
-2.703845 3.1260633 1.6640074 0
-2.4859426 3.1077609 1.6530318 0
-2.2947297 3.134871 1.6689048 0
-2.1414309 3.0959198 1.6797198 0
-1.891215 3.1258485 1.6912113 0
-1.6986454 3.1365924 1.6532662 0
-1.4906453 3.0746353 1.6806273 0
-1.2821858 3.1095688 1.6889331 0
-1.0963458 3.1307538 1.7303047 0
-0.93515438 3.112694 1.7032485 0
-0.73132426 3.1198103 1.6693289 0
-0.46072766 3.0671711 1.7031652 0
-0.28490719 3.0689509 1.6736342 0
-0.17679191 3.0566783 1.6826283 0
0.13042593 3.1209369 1.7001951 0
0.35977882 3.1066737 1.6792568 0
0.52866274 3.1620111 1.6849412 0
0.65361899 3.1155851 1.689662 0
0.93253613 3.0685906 1.6874801 0
1.0671397 3.1167467 1.6867238 0
1.277999 3.074156 1.7115828 0
1.483765 3.1307523 1.6807306 0
1.6948467 3.1037407 1.7168458 0
1.9320322 3.1825287 1.7005433 0
2.1139684 3.0885897 1.706543 0
2.3099563 3.1198583 1.7186986 0
2.5161219 3.1026983 1.7198205 0
2.6889782 3.1000409 1.6831068 0
2.9096069 3.1261024 1.6917611 0
3.1006649 3.0702431 1.7136375 0
3.3094068 3.1022182 1.6941698 0
3.49506 3.1098759 1.6797354 0
3.6758189 3.1034799 1.7218074 0
3.9460907 3.0550992 1.7001925 0
4.1292033 3.0947258 1.6928005 0
4.2437692 3.0928171 1.6728452 0
4.4640369 3.0434086 1.6386567 0
4.6918554 3.049777 1.7986337 0
5.8283844 3.0640936 1.634642 0
6.0477505 3.0674272 1.7709244 0
7.0815501 3.0344672 1.7632785 0
7.5426245 3.0967112 1.6725702 0
7.6050148 3.1906128 1.7276608 0
8.5888939 3.0400717 1.7144617 0
8.7775011 3.195219 1.6030889 0
8.8629389 3.0975654 1.6960063 0
-2.6713772 3.2563074 1.6555529 0
-2.4892523 3.246881 1.6698643 0
-2.3003972 3.2788639 1.6899447 0
-2.0660217 3.2790172 1.6934761 0
-1.8558174 3.2664323 1.676857 0
-1.6964276 3.2858706 1.6892391 0
-1.5156226 3.2682226 1.6972558 0
-1.244077 3.2580743 1.6838224 0
-1.1073426 3.2643962 1.6756362 0
-0.89156228 3.2538788 1.6904552 0
-0.72302419 3.2679965 1.6830562 0
-0.53019542 3.2481134 1.6774201 0
-0.28152558 3.2664313 1.6928695 0
-0.1015489 3.264179 1.6815238 0
0.0915576 3.2491333 1.6703424 0
0.28791487 3.2562902 1.6953825 0
0.47431329 3.2788689 1.6921757 0
0.66694611 3.2798886 1.6905676 0
0.89410847 3.2690609 1.7018822 0
1.1078744 3.261251 1.6901699 0
1.2729073 3.2640538 1.6952165 0
1.504402 3.2693803 1.6948144 0
1.7216277 3.2637753 1.7053828 0
1.902122 3.2676902 1.6901953 0
2.0928218 3.2617025 1.6969285 0
2.2796962 3.2603774 1.701139 0
2.5039926 3.2614646 1.7055709 0
2.7019451 3.2934551 1.7018799 0
2.9090972 3.2593176 1.7090172 0
3.0816972 3.254262 1.7094545 0
3.3209569 3.2591758 1.7076042 0
3.4947898 3.2520869 1.6950293 0
3.716315 3.2513268 1.6872113 0
3.8933558 3.2225873 1.6888201 0
4.043973 3.2858729 1.719866 0
4.4078364 3.2275183 1.6836083 0
5.5298157 3.2088065 1.7673711 0
-0.11395454 3.4626529 1.6087227 0
0.33415127 3.5873187 1.6441119 0
0.99861908 3.4446948 1.6055707 0
1.5944567 3.4258354 1.603768 0
2.8727832 3.4197905 1.6699528 0
4.3445559 3.5404007 1.672233 0
-2.7941198 3.652667 1.7529458 0
-0.31305552 3.6244948 1.6300249 0
-2.7121239 3.9282429 1.6616348 0
4.4657183 3.9436355 1.6827571 0
0.064890862 4.1932173 1.7014875 0
0.70318997 4.1271544 1.6748302 0
3.6719675 4.1436281 1.7947199 0
4.4197588 4.1918283 1.7687001 0
-2.684757 4.2324991 1.6885598 0
0.83535576 4.2729878 1.7224684 0
1.572243 4.2907863 1.7551196 0
2.211473 4.3074341 1.7585999 0
-2.8389325 4.4663076 1.7384892 0
-0.34650803 4.4237213 1.6766088 0
4.1492357 4.503293 1.6949553 0
-2.8249638 4.7608786 1.7704903 0
-2.7026176 4.7172446 1.6532545 0
4.4562006 4.61341 1.7918433 0
1.0686498 5.1732244 1.6141841 0
-1.2058954 5.3842196 1.6435155 0
-0.22481215 5.3990898 1.797169 0
0.090696335 5.3651018 1.6799852 0
2.7117634 5.3844008 1.6908181 0
3.3569627 5.3445415 1.6205772 0
4.2700448 5.3835669 1.7056049 0
-2.8144808 5.4779415 1.6670146 0
-2.7591727 5.4985323 1.694802 0
-1.84901 5.4546442 1.6419467 0
-1.5623527 5.4415326 1.684497 0
-0.97836113 5.4299278 1.6550356 0
-0.4539361 5.45679 1.6360371 0
-0.016271114 5.4075027 1.6687977 0
0.37730598 5.5822268 1.7944622 0
0.73261285 5.4199581 1.7468625 0
1.1260233 5.5024114 1.6607175 0
1.5480714 5.4180923 1.6384962 0
1.7143571 5.4216781 1.6861246 0
1.8503675 5.5433035 1.6602111 0
2.1256216 5.4382787 1.6198779 0
2.2964449 5.5260849 1.6620059 0
2.483582 5.4462423 1.6490796 0
2.7593524 5.5879917 1.7070246 0
3.1544602 5.4302278 1.7544118 0
3.2354784 5.4348297 1.6865103 0
3.4043775 5.4536257 1.6713712 0
3.6744494 5.4749317 1.6658297 0
4.1764913 5.5419984 1.7151912 0
4.2618322 5.4874535 1.7006685 0
4.5934029 5.4686022 1.7578855 0
4.6316385 5.484601 1.6565843 0
-1.8975852 5.6261816 1.6243223 0
-1.2815669 5.6376638 1.6543331 0
-0.75374734 5.6095839 1.6871964 0
0.35187113 5.641634 1.6251345 0
1.0470481 5.6267834 1.7942903 0
1.4251482 5.6465998 1.6199683 0
2.8517003 5.6270294 1.6710367 0
3.1588595 5.6138401 1.6585948 0
3.2003915 5.6505814 1.6280353 0
3.646178 5.6019983 1.6899822 0
4.2048731 5.612421 1.6129464 0
4.4938364 5.6532254 1.7780383 0
3.2239256 6.4590712 1.6651204 0
4.5774784 6.4607191 1.6665664 0
4.6227484 6.44947 1.6737316 0
-9.2304726 -5.6032848 1.9704634 0
-8.177 -5.6091118 1.8050859 0
-2.6007128 -5.6224585 1.9673264 0
0.85135114 -5.6307497 1.9141815 0
3.3360267 -5.6014152 1.8095875 0
3.473124 -5.6160073 1.9190109 0
-9.694953 -5.5247707 1.8940526 0
-9.2220659 -5.4696455 1.8221297 0
-8.8273478 -5.4708514 1.8038483 0
-8.6399593 -5.4574962 1.8790758 0
-8.481081 -5.4708657 1.9109809 0
-8.3024416 -5.4750838 1.9427177 0
-8.1969481 -5.5028906 1.9256032 0
-7.8932972 -5.492754 1.9958386 0
-7.4965811 -5.5599117 1.8284453 0
-7.0683413 -5.4848876 1.8710258 0
-6.8210282 -5.4814758 1.8044969 0
-6.0742202 -5.4526095 1.9193099 0
-2.9144237 -5.5058064 1.901145 0
-2.7654338 -5.5029125 1.9538949 0
-1.8967109 -5.4716396 1.9466922 0
-1.6339571 -5.452692 1.9076428 0
-1.574651 -5.4736733 1.9857565 0
-1.3240128 -5.4758472 1.8812621 0
-1.0975235 -5.462532 1.8324034 0
-0.98294783 -5.5629721 1.8195472 0
-0.68358994 -5.5160246 1.9844439 0
-0.59945512 -5.4698486 1.8662605 0
-0.15805864 -5.5431991 1.8350636 0
0.072020531 -5.438683 1.8532302 0
1.0157671 -5.4538107 1.8841082 0
1.7117007 -5.4829812 1.884686 0
1.8243184 -5.4441099 1.932312 0
2.0704021 -5.4703841 1.9534976 0
2.3292224 -5.4668899 1.8972902 0
2.5068202 -5.57338 1.8263808 0
3.338033 -5.5403352 1.9420667 0
3.4336994 -5.5482197 1.9725122 0
3.7072842 -5.4979606 1.9746336 0
3.954123 -5.5006638 1.9671636 0
4.0655689 -5.5396194 1.8794261 0
4.3295045 -5.56391 1.8664103 0
4.468483 -5.4620814 1.9017323 0
4.7919006 -5.4608846 1.9246404 0
5.5435047 -5.4637332 1.9022522 0
5.6551566 -5.4384756 1.9663417 0
5.8763375 -5.4996815 1.9020457 0
6.1198573 -5.5163975 1.8414304 0
6.7428212 -5.5951204 1.8701299 0
7.1799917 -5.5672879 1.9101847 0
7.5763459 -5.4333415 1.9788022 0
8.7421417 -5.5185041 1.8756626 0
8.8700714 -5.494205 1.9147928 0
-2.9098892 -5.3762546 1.9548135 0
-1.0713269 -5.3039293 1.9663413 0
3.3703313 -5.203248 1.9408083 0
3.5507016 -5.3323679 1.9998562 0
3.7427559 -5.3346195 1.9690979 0
4.453074 -5.35602 1.9093575 0
8.9072275 -5.3410778 1.9928888 0
-1.08849 -5.1125116 1.9696898 0
-0.85558784 -5.1400461 1.9565973 0
-0.73643947 -5.0129189 1.9802467 0
3.3660889 -5.1349578 1.9592673 0
3.485611 -5.0997915 1.9369328 0
3.7585535 -5.0996733 1.972753 0
3.8102663 -5.149415 1.9585464 0
4.487802 -5.1562181 1.9393148 0
8.9234877 -5.167922 1.9177639 0
-9.7672577 -4.8499813 1.9174931 0
-3.0138021 -4.9041862 1.8910824 0
-1.109545 -4.8746352 1.9895651 0
-0.9056077 -4.9517374 1.9878912 0
-0.6643281 -4.8963561 1.9923776 0
3.3783877 -4.8552251 1.9545133 0
3.4661815 -4.8624258 1.9612197 0
3.7296193 -4.8662186 1.9697167 0
4.4621258 -4.9092884 1.984639 0
-10.045631 -4.6183033 1.8565881 0
-9.7088261 -4.7620788 1.8842274 0
-1.0492802 -4.6610155 1.9690037 0
-0.8220067 -4.7384315 1.9728667 0
3.3613253 -4.6584158 1.961284 0
3.4859281 -4.6764503 1.9453676 0
3.7805176 -4.6453137 1.9675405 0
-10.040318 -4.487884 1.8191537 0
-2.8355021 -4.5028248 1.9634905 0
-1.0074763 -4.4305344 1.9967548 0
-0.83876801 -4.5794601 1.9809217 0
3.396945 -4.5192676 1.9261167 0
3.5290003 -4.5098996 1.9628887 0
3.6284411 -4.491704 1.9711316 0
4.4736366 -4.4629521 1.9559212 0
8.8789463 -4.5046778 1.9324927 0
-1.1266599 -4.3603168 1.9942925 0
-0.74660683 -4.3631306 1.976367 0
3.443769 -4.2145052 1.9498651 0
3.718457 -4.3029284 1.9445528 0
4.4789977 -4.377017 1.8974807 0
-9.7803917 -4.1030927 1.8296943 0
-3.0212045 -4.0551643 1.8777086 0
-1.0630574 -4.0574355 1.9810845 0
-0.73483497 -4.0817852 1.9617785 0
3.4851675 -4.0644197 1.9494481 0
3.7610188 -4.0853634 1.970263 0
3.8631563 -4.0254183 1.956784 0
8.794034 -4.0967236 1.8263125 0
-1.1174846 -3.8130715 1.9898487 0
3.3407884 -3.9433665 1.9622461 0
3.4724679 -3.8287241 1.82147 0
3.7175035 -3.9687309 1.9067185 0
3.8200638 -3.9163632 1.9457974 0
-9.7981405 -3.6590471 1.9305557 0
-3.0459611 -3.7686954 1.9725131 0
-1.1406746 -3.6687047 1.9971564 0
-0.99858189 -3.6357722 1.974938 0
3.3759148 -3.7601459 1.9393924 0
3.7576814 -3.7099447 1.9662883 0
3.8262534 -3.7945735 1.9988766 0
8.9004612 -3.6334524 1.9380913 0
-9.7794743 -3.5565102 1.8524507 0
-1.0963769 -3.5168262 1.9971231 0
-0.93195391 -3.4045944 1.9744396 0
3.3946531 -3.5735795 1.9347224 0
3.49231 -3.5409765 1.9395934 0
3.6826844 -3.4820814 1.9697851 0
8.5266237 -3.5007777 1.9015626 0
8.8729477 -3.570425 1.973484 0
-2.8448286 -3.3878963 1.9969718 0
-0.95025587 -3.3986225 1.9652231 0
-0.78605747 -3.3697402 1.8743889 0
3.3927281 -3.2685266 1.9450822 0
3.5441093 -3.252383 1.997054 0
3.8274102 -3.3773081 1.970175 0
8.5232449 -3.3004715 1.9038637 0
8.8978853 -3.2092803 1.8971539 0
-9.761097 -3.1209874 1.9263391 0
-1.0892646 -3.165596 1.9848468 0
-0.73379326 -3.1640525 1.9616531 0
3.3384259 -3.1346836 1.9838492 0
3.7330394 -3.1448536 1.9767505 0
8.515769 -3.181654 1.9078816 0
8.9028845 -3.1320043 1.9055139 0
-3.039537 -2.8540318 1.9084814 0
-1.0766439 -2.8862553 1.9862856 0
-0.83973885 -2.9036632 1.9726825 0
-0.75786543 -2.8752742 1.9224038 0
3.4688575 -2.9159088 1.9398708 0
3.7679656 -2.8410034 1.964309 0
8.9782343 -2.9715338 1.9792662 0
3.3836455 -2.6626685 1.9374276 0
3.4722867 -2.6803298 1.964361 0
3.7974901 -2.6732109 1.9515555 0
-2.846482 -2.428232 1.8234293 0
-1.0395315 -2.4883008 1.9819466 0
3.7072864 -2.4447737 1.9948542 0
-1.0177011 -2.2801316 1.9166808 0
-0.80083084 -2.2171097 1.9882547 0
-0.73929024 -2.3202562 1.9609319 0
3.745728 -2.3989668 1.9790071 0
8.8560925 -2.3452723 1.8227304 0
-1.06991 -2.1821783 1.9699042 0
-0.92971396 -2.1514237 1.9262271 0
3.5114932 -2.0648928 1.9822764 0
-9.7977228 -1.8380642 1.8749717 0
0.53434658 -1.8720746 1.8034719 0
0.76702166 -1.9570657 1.8249904 0
-3.0249968 -1.6775056 1.8551368 0
-2.8484688 -1.6922135 1.8656325 0
-0.91353273 -1.6230175 1.8673816 0
-0.76325917 -1.7733803 1.9002302 0
0.7360754 -1.7154012 1.9473581 0
0.84581804 -1.7677886 1.9080474 0
3.6066036 -1.7864165 1.9295882 0
7.3528795 -1.6120697 1.9764256 0
8.8961868 -1.6303595 1.8521072 0
-8.6787624 -1.4511086 1.9453357 0
-3.0157912 -1.5291508 1.9415715 0
-0.82189274 -1.4580462 1.9540802 0
-0.71063924 -1.507185 1.9119165 0
0.45892906 -1.5755477 1.9187655 0
7.3603897 -1.5451698 1.9778692 0
7.4132004 -1.5401227 1.9564873 0
8.9042864 -1.4289304 1.8316001 0
-1.0578876 -1.2448609 1.8308609 0
-0.86311454 -1.3007556 1.9116355 0
-0.69300342 -1.3506973 1.9060078 0
3.7517562 -1.2890791 1.9246778 0
7.9271016 -1.3804709 1.8314735 0
8.9047718 -1.3972707 1.8527302 0
-9.8351002 -1.0725551 1.9180382 0
-9.7706852 -1.0196298 1.8359708 0
-9.5088358 -1.0148267 1.8360423 0
-1.0081105 -1.1399052 1.9444635 0
-0.90887356 -1.116606 1.9116684 0
0.81667948 -1.1090443 1.9626694 0
3.4301975 -1.1163871 1.9518349 0
3.60463 -1.1806216 1.9445511 0
7.4366541 -1.1921865 1.9448701 0
8.7964945 -1.0038514 1.8586969 0
-9.5472746 -0.93066519 1.9102547 0
-1.0801585 -0.89290994 1.8289177 0
-0.90462416 -0.83568001 1.8965665 0
-0.70208955 -0.94006002 1.9445821 0
7.0519671 -0.83632708 1.9047197 0
-6.8359184 -0.68173587 1.9989688 0
-1.0570588 -0.60437822 1.8759297 0
-0.84983277 -0.7140891 1.8817656 0
-0.70398521 -0.67007113 1.884169 0
3.3408422 -0.67929763 1.9738684 0
3.4899578 -0.71388763 1.9586793 0
7.943522 -0.60940957 1.8178256 0
8.0036354 -0.65241927 1.8069403 0
-9.5418177 -0.41290522 1.9350011 0
-3.0327623 -0.53208041 1.9779987 0
-2.8366418 -0.59515011 1.9180188 0
-1.0510004 -0.49891061 1.8581049 0
-0.80008888 -0.44466424 1.9690038 0
-0.65670776 -0.43430209 1.8650156 0
3.514329 -0.48187333 1.9594057 0
3.7527575 -0.46485841 1.9515326 0
7.9311109 -0.52998084 1.9901026 0
-9.854229 -0.36878482 1.9524094 0
-9.7664595 -0.28904286 1.8380702 0
-1.0803475 -0.30168495 1.8510813 0
-0.94384623 -0.23839495 1.9223053 0
-0.75536609 -0.35115659 1.9174738 0
3.3387613 -0.31710148 1.9807179 0
3.5016382 -0.32330036 1.95436 0
3.6571226 -0.34667054 1.9676422 0
3.8424382 -0.31466055 1.975899 0
7.4956527 -0.34243822 1.821606 0
8.988698 -0.2394439 1.8881718 0
-9.7965708 -0.14639789 1.8476787 0
-9.5323105 -0.18037552 1.9133546 0
-1.02929 -0.13173236 1.8629014 0
-0.72334242 -0.026122928 1.9620078 0
3.5293853 -0.14523818 1.9571018 0
3.7407637 -0.13027206 1.9879761 0
-9.7374535 0.13299137 1.8992019 0
-1.0884476 0.14092831 1.9826655 0
-0.984447 0.11400018 1.9224483 0
-0.73643589 0.069330394 1.9430268 0
3.3586738 0.19315004 1.9579355 0
3.493418 0.10250425 1.9346373 0
3.6377251 0.12154651 1.9554602 0
3.8073139 0.065817714 1.9883983 0
8.7880793 0.071325958 1.8442075 0
-9.4576492 0.35034353 1.9063993 0
-1.050012 0.29912388 1.9467986 0
-0.81821537 0.24048415 1.8709669 0
-0.70415878 0.39675164 1.9514661 0
3.5539007 0.33466387 1.9659592 0
3.7450905 0.30490616 1.9738319 0
8.0316067 0.3814044 1.8205038 0
-9.7396059 0.52279556 1.9099878 0
-9.5831261 0.55604428 1.8235698 0
-1.0420156 0.55451632 1.9530679 0
-0.90042639 0.44335639 1.9687755 0
-0.69642305 0.47842813 1.9595835 0
3.3503256 0.51774478 1.9818002 0
3.4989283 0.49160442 1.9581579 0
3.8138933 0.4422636 1.9777811 0
8.8739548 0.48092496 1.8645732 0
-9.8494453 0.78588057 1.9749089 0
-9.758688 0.71116751 1.8727459 0
-9.5205536 0.72108883 1.8655052 0
-1.0665432 0.6558525 1.9750429 0
-0.85767841 0.69843709 1.9544468 0
3.3635757 0.73359567 1.9494714 0
3.4930472 0.73748338 1.9565246 0
3.7373168 0.71539116 1.9839869 0
-9.828064 0.863042 1.9456086 0
-9.6987505 0.92088664 1.959546 0
-9.5535631 0.86056089 1.8960146 0
-1.0978938 0.88413924 1.9716871 0
-0.72802448 0.91792154 1.9734666 0
3.4832647 0.88879746 1.9465036 0
3.7367315 0.92069113 1.9576583 0
-9.6813002 1.1066725 1.8731165 0
-9.5203409 1.1417201 1.9148675 0
-1.1430508 1.1411357 1.9855231 0
-0.73044348 1.1630354 1.9523996 0
3.4241626 1.0625179 1.95895 0
3.7009957 1.1637124 1.9930074 0
3.8205924 1.115799 1.9854501 0
8.9159565 1.0864761 1.804796 0
-9.7500172 1.235622 1.9303713 0
-9.5336485 1.3146642 1.8890494 0
-2.8303912 1.3032343 1.8225961 0
-1.0763111 1.3237795 1.9828883 0
-0.92189646 1.3600597 1.9544537 0
-0.72460526 1.309406 1.9410124 0
3.7008832 1.2791692 1.9677582 0
-9.8042192 1.4821916 1.9187251 0
-9.7635946 1.4738148 1.9273409 0
-9.2655344 1.5046818 1.8663456 0
-1.1302788 1.5210476 1.9863771 0
-0.8998692 1.5089469 1.9449183 0
-0.70802188 1.4888335 1.9685279 0
3.3579459 1.5779532 1.9912486 0
3.5006361 1.466436 1.9438629 0
3.6630447 1.5462132 1.9549958 0
3.8152494 1.5908909 1.9830887 0
8.8802958 1.4377816 1.9864748 0
-9.1483707 1.6383339 1.8635988 0
-8.4825954 1.760705 1.8987339 0
-1.1365438 1.7501159 1.9974985 0
-0.92617083 1.6922225 1.961284 0
-0.72349423 1.700138 1.9645573 0
3.3773556 1.7793822 1.9992465 0
3.4571371 1.6710619 1.9736111 0
3.7054195 1.6795124 1.9528246 0
3.8148489 1.6202159 1.9666913 0
-9.7132177 1.9536278 1.8388596 0
-8.4656038 1.9855971 1.9452922 0
-1.1016631 1.942791 1.9840453 0
-0.87482923 1.8816266 1.9674484 0
-0.70612502 1.9059446 1.9680536 0
3.3729951 1.9917294 1.9766544 0
3.4698789 1.9043889 1.933226 0
3.7153363 1.9408646 1.9844545 0
4.2731595 1.9375895 1.9155419 0
8.8059254 1.9020615 1.9444845 0
-9.7314644 2.0463011 1.836068 0
-9.4794626 2.1381092 1.8085151 0
-8.470542 2.0657172 1.9007121 0
-3.0674572 2.0562372 1.9083254 0
-1.1828651 2.0058749 1.994656 0
-0.90471441 2.0781758 1.9663609 0
-0.73049194 2.1070044 1.9647657 0
3.3795464 2.0832033 1.9674143 0
3.4906001 2.0821991 1.9491224 0
3.7124026 2.0982208 1.9701136 0
4.2157907 2.0139618 1.9872338 0
8.8494644 2.1353557 1.9829743 0
-9.8115749 2.3210583 1.9325505 0
-9.468936 2.2986474 1.8173596 0
-2.8427806 2.2113514 1.9546176 0
-1.1001638 2.275013 1.9770246 0
-0.9695363 2.3279827 1.9577293 0
-0.7432006 2.3294437 1.9571089 0
3.4801776 2.3158288 1.9789767 0
3.7353942 2.3560023 1.9634033 0
4.2798262 2.3907566 1.9599245 0
8.7887468 2.251049 1.9502571 0
-9.4767494 2.4705942 1.8183229 0
-6.8263264 2.5177808 1.8006773 0
-2.8542638 2.427408 1.8180946 0
-1.0826882 2.5411446 1.9768668 0
-0.93328685 2.5086789 1.975507 0
-0.743559 2.5395949 1.9715315 0
3.3742802 2.5044951 1.9777184 0
3.4667625 2.5304096 1.9486901 0
3.717412 2.5170915 1.9754138 0
3.8130035 2.4562669 1.9136866 0
4.2801394 2.483156 1.9512421 0
8.9611492 2.5438643 1.9313127 0
-9.4934454 2.7240515 1.8214052 0
-8.1002502 2.6777253 1.9105666 0
-7.293756 2.7332935 1.8731376 0
-7.1286488 2.7984414 1.8337445 0
-6.9321613 2.7962141 1.8747413 0
-3.0323129 2.6502275 1.8132709 0
-1.0497555 2.7062953 1.9655688 0
-0.92145205 2.7344561 1.9593885 0
-0.70539922 2.6748638 1.9692048 0
-0.59853411 2.6726778 1.9750363 0
3.3684249 2.6788268 1.9913262 0
3.4560204 2.6977758 1.9601077 0
3.7399909 2.720691 1.9831303 0
3.8144765 2.7335966 1.9505768 0
4.2537961 2.7404144 1.973855 0
8.9678116 2.7103407 1.9298079 0
-9.7362223 2.9054403 1.9136211 0
-7.2871966 2.8484886 1.9761286 0
-7.1771126 2.8405237 1.9381216 0
-6.6612549 2.9421363 1.8922129 0
-5.7036705 2.8754239 1.8689554 0
-4.571558 2.9898038 1.9406406 0
-1.0851609 2.885237 1.9704882 0
-0.89830399 2.8977172 1.9710582 0
-0.69991493 2.8834693 1.9653656 0
-0.55943298 2.9992578 1.9544613 0
0.32533455 2.9639223 1.9074717 0
1.2751627 2.9793308 1.9607214 0
2.5578821 2.9538708 1.8883827 0
2.8354864 2.9779665 1.8547645 0
3.1431313 2.9906349 1.843757 0
3.3918371 2.896152 1.9670621 0
3.7108295 2.9544938 1.9805778 0
3.8168447 2.9076877 1.9701047 0
4.2753406 2.9477329 1.8760729 0
4.449573 2.9227304 1.8927035 0
5.1322141 2.952868 1.8523492 0
5.5176945 2.907135 1.9536378 0
7.3719931 2.9110365 1.855691 0
7.5559716 2.9624603 1.8739771 0
7.9274917 2.9223051 1.9366755 0
8.8999739 2.9618464 1.8915153 0
-9.7174873 3.0608716 1.9027923 0
-9.5746784 3.0835068 1.9039727 0
-9.2755289 3.0665667 1.9706179 0
-9.1060486 3.0114777 1.9736668 0
-8.9169102 3.0370479 1.9655242 0
-8.7316618 3.0443358 1.946357 0
-8.5363197 3.066494 1.9667041 0
-8.0932665 3.0327749 1.9598269 0
-7.8843727 3.0503736 1.8867828 0
-7.710258 3.0455804 1.8184586 0
-7.5608854 3.0972071 1.9130626 0
-7.0691404 3.0440869 1.8813179 0
-6.7010007 3.0253084 1.8302027 0
-5.680428 3.1116555 1.8817919 0
-3.7552314 3.1159949 1.9533806 0
-3.0096078 3.0770068 1.9117908 0
-2.9243648 3.089227 1.8967931 0
-2.7832823 3.1337903 1.9009904 0
-2.0972357 3.0531723 1.9696761 0
-1.7666819 3.0563312 1.8253953 0
-1.0170321 3.0804133 1.933753 0
-0.89921463 3.071595 1.971151 0
-0.72174644 3.148911 1.9749961 0
-0.50182295 3.1030755 1.8648733 0
0.4783287 3.0365648 1.8272223 0
1.2403007 3.0326085 1.9337183 0
1.6806334 3.0308473 1.935173 0
2.0262008 3.0423586 1.9586293 0
2.2372346 3.0427411 1.894727 0
2.6473346 3.0403051 1.8882054 0
3.1498699 3.0470312 1.9126081 0
3.3204513 3.1290519 1.992044 0
3.4592576 3.0624702 1.9667482 0
3.6115856 3.1440396 1.9713345 0
4.2801185 3.0561619 1.931307 0
4.4592714 3.0456316 1.8942121 0
5.0778756 3.0282893 1.9479046 0
5.3666892 3.0203483 1.9066591 0
5.7038417 3.0375593 1.8602833 0
5.8183918 3.0410891 1.9486692 0
6.5932131 3.0570202 1.8862393 0
7.2004862 3.0577211 1.9106852 0
7.5420403 3.1928396 1.8890133 0
8.042922 3.0170658 1.9985498 0
8.2673664 3.1022205 1.8402539 0
8.6959295 3.1084824 1.9230018 0
8.8575478 3.0993662 1.8925992 0
-5.5204129 3.2054167 1.8088793 0
-1.3822417 3.205708 1.8358824 0
-0.98129225 3.2960358 1.9221094 0
-0.56738305 3.2515392 1.9441839 0
0.43781996 3.3541534 1.9325827 0
0.86918449 3.3044765 1.9251128 0
1.9780426 3.2442172 1.9521666 0
4.8238635 3.212811 1.9987102 0
6.5597701 3.2004864 1.8225511 0
-0.92618108 3.570771 1.9414457 0
-0.7455287 3.512274 1.9734706 0
-0.5311141 3.4182055 1.988474 0
8.8581018 3.5900998 1.9873178 0
-0.60626602 3.629478 1.9400058 0
-0.59538651 3.6663916 1.9660481 0
-0.93876076 3.9794581 1.9736286 0
-0.54891109 3.9350941 1.9691399 0
4.4899244 3.9587789 1.8780034 0
3.2828274 4.0599623 1.8772473 0
3.7679901 4.1287947 1.8678 0
4.3858862 4.1742902 1.8713877 0
-0.087071419 4.3108511 1.9961699 0
2.2825232 4.2838645 1.8139782 0
-2.711827 4.5089345 1.8329024 0
-2.6916904 4.6920691 1.9482474 0
4.1613927 4.7865028 1.9383948 0
4.2220459 4.6193066 1.9084553 0
4.3740568 5.0165744 1.8618019 0
0.23005843 5.362803 1.9092495 0
2.8559365 5.3309951 1.8111113 0
3.5754304 5.3676538 1.9860046 0
4.3064027 5.3663802 1.9090557 0
-2.7553492 5.4936538 1.8860929 0
-1.6096385 5.4409857 1.9744633 0
-1.4967608 5.5039544 1.8736039 0
-0.62529945 5.4221034 1.9130725 0
-0.49732745 5.40488 1.851825 0
0.19426203 5.426528 1.931839 0
0.27372193 5.4018316 1.8960524 0
0.48145103 5.4396286 1.8990443 0
1.3691208 5.5914364 1.8803437 0
1.8082194 5.5966511 1.9233049 0
2.3871136 5.4236107 1.8065958 0
2.6738453 5.4850807 1.892589 0
3.2387233 5.4296346 1.9701512 0
3.5741472 5.5848236 1.893358 0
3.6749864 5.5319729 1.9447628 0
3.8173461 5.576808 1.8346032 0
4.1730452 5.526041 1.8967642 0
4.2516389 5.4765935 1.9011215 0
4.5899115 5.4688377 1.9315801 0
4.6193557 5.566226 1.8431482 0
0.19554734 5.608839 1.9085923 0
2.1987772 5.6173391 1.8432207 0
4.5462198 6.3991432 1.8858548 0
4.5855837 6.4138451 1.9141562 0
-8.9024611 -5.6138058 2.1648223 0
3.7557597 -5.6074233 2.1710968 0
-9.6998148 -5.5297437 2.0844271 0
-9.134388 -5.5934505 2.0252631 0
-8.7297716 -5.4599304 2.1616502 0
-8.4791346 -5.492908 2.147496 0
-7.6543455 -5.4816942 2.1475472 0
-6.2980466 -5.5957084 2.1775162 0
-5.7792773 -5.5934801 2.1744819 0
-2.9153733 -5.5112858 2.0983002 0
-2.1207647 -5.4162254 2.0703585 0
-1.8646612 -5.4684176 2.0925522 0
-1.6770684 -5.5057607 2.0659964 0
-1.546886 -5.4777703 2.0493817 0
-1.2012882 -5.474997 2.0143957 0
-1.0610228 -5.4693432 2.0250893 0
-0.85025436 -5.4953609 2.0055876 0
-0.72105151 -5.5044942 2.1063333 0
-0.57100517 -5.5183845 2.0787928 0
0.1167779 -5.4628563 2.145772 0
0.46877408 -5.5111065 2.1284795 0
0.86023903 -5.4262996 2.0501347 0
1.5695591 -5.480094 2.1429482 0
