# .PCD v0.7 - Point Cloud Data file format
VERSION 0.7
FIELDS x y z intensity
SIZE 4 4 4 4
TYPE F F F F
COUNT 1 1 1 1
WIDTH 1363
HEIGHT 1
VIEWPOINT 0 0 0 1 0 0 0
POINTS 1363
DATA ascii
-5.7485247 -0.18526946 -0.55047005 0
-5.3932858 -0.17868106 -0.5361554 0
-5.0049973 -0.19804257 -0.55374354 0
-4.5991335 -0.17699756 -0.54261559 0
-4.1705408 -0.20870048 -0.55148828 0
-3.7859802 -0.17676358 -0.53797877 0
-3.4122455 -0.21950971 -0.54057854 0
-2.9994361 -0.18996908 -0.54269391 0
-2.6080387 -0.2161026 -0.54288417 0
-2.1829171 -0.19780609 -0.54713684 0
-1.8014419 -0.19036818 -0.55651242 0
-1.3970629 -0.19968225 -0.54091227 0
-1.0235684 -0.19088678 -0.52750158 0
-0.60586721 -0.2091523 -0.53310496 0
-0.21139345 -0.19273862 -0.52141494 0
0.2065451 -0.19964318 -0.51637053 0
0.58081496 -0.18950245 -0.50795984 0
1.0070622 -0.18297008 -0.50833821 0
1.3750961 -0.20073695 -0.51485503 0
1.7819804 -0.20497236 -0.50322759 0
2.1956253 -0.18812937 -0.50844288 0
2.6097369 -0.22759648 -0.50704998 0
3.0080681 -0.2093695 -0.50760812 0
3.4069452 -0.2205622 -0.50556606 0
3.7715404 -0.20109171 -0.50487673 0
4.1993217 -0.205079 -0.50895411 0
4.6089482 -0.19236247 -0.50475234 0
4.9916883 -0.18905304 -0.50735289 0
5.3984528 -0.22524649 -0.50426489 0
5.7786717 -0.20676573 -0.50047147 0
6.1966243 -0.18089896 -0.51140827 0
6.5690374 -0.22199656 -0.49686673 0
7.0122094 -0.188034 -0.50774866 0
7.4040604 -0.16881679 -0.50313985 0
7.7867208 -0.18794449 -0.50961351 0
8.1984196 -0.19541401 -0.50622582 0
8.6145792 -0.20208701 -0.52655113 0
8.8719807 -0.17199937 -0.44008476 0
-9.6794806 0.20173691 -0.53476793 0
-9.4229622 0.15237942 -0.6280157 0
-9.0053797 0.23602311 -0.54775226 0
-8.6030941 0.16659261 -0.5482887 0
-8.202611 0.19763023 -0.53862929 0
-7.816267 0.20629694 -0.53703481 0
-7.4118109 0.1892781 -0.53788948 0
-6.9702106 0.19688927 -0.54206252 0
-6.584291 0.19375184 -0.54693753 0
-6.1854162 0.22146098 -0.54676986 0
-5.7671475 0.21217328 -0.5560146 0
-5.3975186 0.20271717 -0.53727025 0
-5.0059676 0.19340168 -0.53548318 0
-4.5991712 0.20919187 -0.54542255 0
-4.1703672 0.19596556 -0.54015589 0
-3.7833982 0.21878015 -0.55563372 0
-3.4004171 0.20568648 -0.55161136 0
-3.0036068 0.19715384 -0.55343449 0
-2.6045618 0.21308538 -0.54311675 0
-2.2025352 0.22201613 -0.54346538 0
-1.8054785 0.19265281 -0.54222608 0
-1.3786007 0.21721728 -0.53256577 0
-1.0091792 0.20599867 -0.53075367 0
-0.59407169 0.19728857 -0.5266853 0
-0.19845676 0.20977487 -0.51766104 0
0.2058215 0.19593328 -0.51650184 0
0.59224898 0.20257741 -0.50899583 0
1.0068499 0.21531883 -0.5094586 0
1.3830545 0.19725907 -0.51079351 0
1.8416317 0.19204007 -0.5013715 0
2.1728706 0.19605646 -0.51548195 0
2.6005023 0.20435205 -0.50771344 0
3.011761 0.20015199 -0.50269991 0
3.3887293 0.17747602 -0.51168644 0
3.7807102 0.18971553 -0.50522077 0
4.1686034 0.20058142 -0.50921458 0
4.6059408 0.21311779 -0.4986133 0
5.0072231 0.19709419 -0.50974303 0
5.4159422 0.21321297 -0.49899855 0
5.7687507 0.17457438 -0.48380291 0
6.1400723 0.20532022 -0.4782567 0
6.5573578 0.17295046 -0.48160502 0
6.967701 0.18715405 -0.48498061 0
7.4147668 0.24633041 -0.51265746 0
7.8044338 0.25947794 -0.50199836 0
8.1783724 0.20088772 -0.50578386 0
8.6303167 0.20059168 -0.53961074 0
8.8756237 0.23857857 -0.44536269 0
-9.6867132 0.60254782 -0.53162503 0
-9.4694586 0.55663335 -0.58373576 0
-8.9978094 0.63144386 -0.56220138 0
-8.6155949 0.56498569 -0.54028994 0
-8.2260876 0.62214011 -0.53924954 0
-7.8085022 0.61038321 -0.53321189 0
-7.4082956 0.58669114 -0.52801269 0
-7.0004473 0.60543835 -0.5161429 0
-6.617909 0.57051808 -0.53300655 0
-6.2103596 0.59131229 -0.53341883 0
-5.8056502 0.60738903 -0.54415268 0
-5.3987479 0.58815342 -0.53516442 0
-5.0003514 0.59435129 -0.54097563 0
-4.5942388 0.60669923 -0.54488754 0
-4.187119 0.57824087 -0.53683376 0
-3.7983022 0.60401398 -0.55394912 0
-3.3828948 0.60235125 -0.54931808 0
-2.9469013 0.61813432 -0.49282652 0
-2.5921094 0.63192356 -0.53627867 0
-2.1669776 0.60558981 -0.54289943 0
-1.7878683 0.58565688 -0.52958465 0
-1.39916 0.61428922 -0.53354913 0
-0.99901259 0.61100703 -0.52307594 0
-0.59906554 0.60292125 -0.51815301 0
-0.18371066 0.57730746 -0.51756012 0
0.22409859 0.59984869 -0.51559979 0
0.60173804 0.61159772 -0.50956434 0
1.0054293 0.61415154 -0.51161408 0
1.412866 0.59670657 -0.5097909 0
1.7987677 0.59494632 -0.51032436 0
2.1673703 0.58210325 -0.50930327 0
2.611279 0.60850066 -0.5124777 0
2.993495 0.61448854 -0.50788146 0
3.4098454 0.5935598 -0.50565386 0
3.7971222 0.60091496 -0.50664312 0
4.2383051 0.59823859 -0.50736922 0
4.5970769 0.59295619 -0.50286525 0
4.9908943 0.60866106 -0.50635159 0
5.418952 0.6538325 -0.46537936 0
5.7941642 0.56314886 -0.48863471 0
6.165225 0.60691381 -0.49518228 0
6.6131039 0.61480689 -0.48300186 0
6.9237986 0.62695301 -0.47218242 0
7.4360046 0.6394887 -0.503245 0
7.7768488 0.61075819 -0.50481784 0
8.1938286 0.6005317 -0.50674683 0
8.6044035 0.57129592 -0.52790076 0
8.8816633 0.62367576 -0.44321808 0
-9.6378765 0.93367255 -0.52083772 0
-9.5108595 0.95114279 -0.56217909 0
-9.0186253 0.94975108 -0.518543 0
-8.5626287 0.97576624 -0.54186469 0
-8.2106667 1.0098538 -0.54479474 0
-7.7989898 1.0209874 -0.52352846 0
-7.3407722 1.0017219 -0.50849068 0
-7.0182571 1.0126116 -0.50517058 0
-6.6068559 1.0104215 -0.49398452 0
-6.2122488 1.0002785 -0.50612509 0
-5.7793164 1.0308344 -0.50581557 0
-5.3681755 0.97741205 -0.53719264 0
-5.0286093 0.99059826 -0.54489696 0
-4.6193089 0.97580558 -0.54177636 0
-4.208231 0.99008644 -0.55653602 0
-3.7927315 1.0259538 -0.54973555 0
-3.4227872 0.98531568 -0.52986509 0
-2.9522748 1.0028627 -0.497224 0
-2.6368756 1.0230227 -0.52364981 0
-2.2077177 1.0134968 -0.52267289 0
-1.7941573 0.96404523 -0.52198786 0
-1.3998107 1.0096558 -0.52016056 0
-1.0155246 1.0046095 -0.51984948 0
-0.59215438 1.0142102 -0.5169217 0
-0.18403159 0.98232913 -0.51847923 0
0.21077244 1.0149342 -0.51266652 0
0.60194302 0.9889586 -0.50842929 0
1.0012743 1.0024384 -0.51347798 0
1.4038454 1.001792 -0.51832324 0
1.8172065 0.99968469 -0.50811791 0
2.2133918 0.99243981 -0.50932986 0
2.592766 1.0202549 -0.50958949 0
2.9970794 0.96628547 -0.50887042 0
3.3975501 0.98759258 -0.50976503 0
3.791626 0.99206519 -0.51497829 0
4.1870389 0.98760176 -0.50872439 0
4.6120472 1.0192379 -0.50731879 0
5.0042539 1.000186 -0.51027673 0
5.4137769 1.0815868 -0.46334377 0
5.8304238 1.0252174 -0.50865924 0
6.1968312 1.0054609 -0.50736928 0
6.6607838 1.0224278 -0.48001084 0
6.9626374 1.0680182 -0.47273383 0
7.4388499 1.021419 -0.50926417 0
7.7975073 1.0417879 -0.50824237 0
8.1414146 1.0121231 -0.51017678 0
8.5881109 0.96726125 -0.51138216 0
8.8704319 0.99205476 -0.44990069 0
-9.6613541 1.4285599 -0.48996198 0
-9.4786806 1.3631083 -0.52038348 0
-9.0553694 1.4407392 -0.54600126 0
-8.5671043 1.4175843 -0.5600127 0
-8.1998205 1.3848768 -0.55036294 0
-7.8373957 1.2954972 -0.55244553 0
-7.3899984 1.3514904 -0.59316283 0
-6.9427705 1.2890229 -0.50818264 0
-6.0038452 1.2696459 -0.4147408 0
-5.6804361 1.4133494 -0.46135256 0
-5.4058628 1.3664116 -0.50938416 0
-5.0185194 1.3956507 -0.53973281 0
-4.5772963 1.3935502 -0.54972601 0
-4.1773291 1.4042037 -0.54657668 0
-3.7980585 1.4019665 -0.54806769 0
-3.41593 1.3728085 -0.54481947 0
-2.9742792 1.3616425 -0.48840305 0
-2.6123006 1.4011883 -0.51906276 0
-2.2396185 1.4032441 -0.52033377 0
-1.8046407 1.3812609 -0.52044481 0
-1.4139204 1.4036021 -0.51996857 0
-0.99489516 1.3896173 -0.51831877 0
-0.61021614 1.4178613 -0.51532316 0
-0.19754022 1.3568349 -0.51742977 0
0.20463769 1.4048924 -0.51002693 0
0.59806377 1.3967787 -0.51490712 0
1.0047987 1.4011489 -0.51346058 0
1.4214531 1.4151316 -0.5121302 0
1.8050327 1.3916627 -0.5112204 0
2.1994941 1.4186116 -0.51143205 0
2.596307 1.4160341 -0.51151174 0
2.9880776 1.4164773 -0.50080597 0
3.4082708 1.3832394 -0.5098905 0
3.8627834 1.3818034 -0.50487465 0
4.2131491 1.4022748 -0.50337714 0
4.6131735 1.3984236 -0.51100737 0
5.0055451 1.4003986 -0.50498027 0
5.4108181 1.4168576 -0.48012641 0
5.8268814 1.4299428 -0.48528671 0
6.223886 1.4029659 -0.50048792 0
6.6245923 1.3710116 -0.47996268 0
6.9954171 1.4214262 -0.48112035 0
7.4238949 1.4186013 -0.50404173 0
7.8125181 1.3748556 -0.52010572 0
8.194911 1.4009668 -0.50739539 0
8.6148205 1.3780309 -0.53328133 0
8.8666782 1.4066428 -0.45603973 0
-9.6779318 1.7935801 -0.49275425 0
-9.4767418 1.8218986 -0.56309801 0
-8.986083 1.7703078 -0.54389679 0
-8.5776739 1.7536765 -0.57112902 0
-8.300704 1.7390791 -0.57515001 0
-7.8979216 1.7566162 -0.69413972 0
-7.4118648 1.8020574 -0.63224465 0
-5.6695271 1.8156699 -0.47017473 0
-5.3956628 1.7937622 -0.50587213 0
-5.0106301 1.7942562 -0.51560211 0
-4.6074014 1.7696941 -0.53153008 0
-4.2188544 1.8012303 -0.53706205 0
-3.760354 1.8700575 -0.50897777 0
-3.4076767 1.8802623 -0.49052647 0
-2.9776943 1.8060101 -0.48778489 0
-2.5803137 1.8027382 -0.51269621 0
-2.1742892 1.7744112 -0.5168134 0
-1.7989237 1.7874092 -0.51775712 0
-1.4040297 1.8047376 -0.51583803 0
-1.0006554 1.7913228 -0.51893461 0
-0.60225952 1.7821834 -0.51820999 0
-0.18127126 1.8046889 -0.51409513 0
0.20439591 1.790639 -0.5174163 0
0.60782611 1.8105347 -0.51176912 0
0.97610629 1.7975401 -0.511217 0
1.4002674 1.7936321 -0.50460249 0
1.7628967 1.7766576 -0.51081914 0
2.2073858 1.8076453 -0.50383395 0
2.6222489 1.8039863 -0.50673002 0
3.0211189 1.7806762 -0.50680315 0
3.411725 1.8043255 -0.51245403 0
3.7997768 1.7772442 -0.5093866 0
4.2366881 1.8566451 -0.49221921 0
4.6127872 1.8082761 -0.51294929 0
4.9789743 1.7881532 -0.50075209 0
5.4305129 1.8051786 -0.4822194 0
5.8346987 1.8308491 -0.48536599 0
6.2182627 1.8198919 -0.49411345 0
6.611331 1.8042532 -0.47788626 0
6.9752154 1.8221389 -0.50700814 0
7.3797894 1.7817084 -0.50367403 0
7.8118577 1.7955183 -0.52381194 0
8.1860981 1.8308353 -0.50284219 0
8.6103334 1.7750012 -0.52182788 0
8.8711567 1.802595 -0.4489494 0
-9.6800098 2.1653969 -0.50275761 0
-9.3791628 2.2087879 -0.56041253 0
-9.0052576 2.1482913 -0.5264172 0
-8.6029415 2.1206715 -0.62953925 0
-8.2677345 2.1963193 -0.63641101 0
-7.7563629 2.1069386 -0.70331985 0
-7.4072924 2.20152 -0.59575105 0
-5.6756406 2.2107036 -0.4610666 0
-5.3806 2.212079 -0.51578373 0
-5.0110111 2.1952972 -0.51380724 0
-4.5737171 2.1722782 -0.51847184 0
-4.1861477 2.2029164 -0.51120806 0
-3.8542356 2.200336 -0.50032765 0
-3.313967 2.0438039 -0.5025202 0
-2.9478045 2.1957076 -0.47327903 0
-2.6040394 2.2075188 -0.51021439 0
-2.2118754 2.1662745 -0.52030689 0
-1.81203 2.1781189 -0.5153228 0
-1.4039648 2.1813972 -0.51495773 0
-0.97887802 2.20822 -0.51672894 0
-0.59982175 2.2148156 -0.5122115 0
-0.21035469 2.1661472 -0.51347899 0
0.22488643 2.2222171 -0.51336735 0
0.61819661 2.2207313 -0.50852937 0
1.0237516 2.1905026 -0.50970775 0
1.397112 2.2138653 -0.50926751 0
1.8080436 2.1926558 -0.49173814 0
2.1430321 2.1255777 -0.46935272 0
2.5785811 2.2186723 -0.50360203 0
3.0040233 2.2043118 -0.5076769 0
3.391017 2.1937702 -0.50753808 0
3.8013129 2.200592 -0.5052644 0
4.2245579 2.1928704 -0.46629056 0
4.6327238 2.1921339 -0.50967073 0
4.9858451 2.1737647 -0.5086984 0
5.3985972 2.1986771 -0.50706851 0
5.7765794 2.2390685 -0.50632775 0
6.2035851 2.2429926 -0.50582576 0
6.5990233 2.2227602 -0.50334847 0
7.0075755 2.2251015 -0.50823659 0
7.3667827 2.2240045 -0.50891346 0
7.7904973 2.157434 -0.50646073 0
8.1936769 2.2260931 -0.51221645 0
8.6286488 2.1919115 -0.5368064 0
8.8651886 2.2052391 -0.44697672 0
-9.6720209 2.5353615 -0.49525437 0
-9.4926615 2.5408792 -0.6523689 0
-9.088213 2.5172839 -0.58410096 0
-8.5537615 2.5019701 -0.6258139 0
-8.2440453 2.614301 -0.60331362 0
-7.8572435 2.5987236 -0.59094888 0
-7.4109106 2.628041 -0.6252678 0
-5.6791568 2.5989246 -0.46175811 0
-5.3645315 2.6017396 -0.50194758 0
-5.0058336 2.6096423 -0.46549416 0
-4.607686 2.6172664 -0.46621203 0
-4.2045884 2.5765824 -0.51343137 0
-3.8850927 2.5973458 -0.48175564 0
-3.2194166 2.5764718 -0.46154332 0
-2.8961017 2.5922847 -0.4699201 0
-2.6186557 2.6257925 -0.50621158 0
-2.2138069 2.5745726 -0.51661313 0
-1.7973316 2.6077073 -0.5141328 0
-1.3974861 2.604681 -0.51474893 0
-1.0182008 2.5848534 -0.5162254 0
-0.5852024 2.5655315 -0.51274979 0
-0.17259452 2.5880213 -0.51448512 0
0.20387711 2.5986209 -0.50878543 0
0.59809154 2.6066864 -0.51074183 0
1.0056664 2.5659428 -0.51161355 0
1.3844967 2.6111119 -0.51211041 0
1.8149931 2.6081767 -0.50353402 0
2.1982961 2.5768692 -0.50272483 0
2.6205606 2.6122253 -0.50773627 0
3.0106394 2.566932 -0.50332463 0
3.3989434 2.5994322 -0.4653427 0
3.7887297 2.5724683 -0.49740988 0
4.2211409 2.6017978 -0.46712869 0
4.6546335 2.5430787 -0.50252837 0
5.0311961 2.5816097 -0.50964165 0
5.4204016 2.5884185 -0.50949591 0
5.7869658 2.5737894 -0.51857334 0
6.2039165 2.6290996 -0.5065701 0
6.5957856 2.5921314 -0.50974649 0
6.9982557 2.6146243 -0.50429672 0
7.4246531 2.5954378 -0.50234759 0
7.8231492 2.5910468 -0.51427424 0
8.2046623 2.594619 -0.50898063 0
8.5937366 2.5554771 -0.51053941 0
8.8752928 2.6290307 -0.4454414 0
-9.6727819 2.9188888 -0.59572023 0
-9.4455309 3.0034499 -0.60003084 0
-8.9981737 3.0085135 -0.61005282 0
-8.6199732 3.0198727 -0.63679439 0
-7.6355209 3.0325863 -0.62366837 0
-7.4821086 3.0173018 -0.60843575 0
-5.6612315 3.0065985 -0.46915713 0
-5.4462199 3.0381808 -0.46660689 0
-4.4559875 2.9887681 -0.45858133 0
-4.2316155 3.0256107 -0.4672564 0
-3.8828666 3.0316029 -0.46660504 0
-3.2161596 2.9921734 -0.47472998 0
-2.8883364 2.9986994 -0.47243124 0
-2.6798177 3.0699065 -0.47363749 0
-2.1969423 2.9525936 -0.51716965 0
-1.810253 3.0119166 -0.5173853 0
-1.41668 3.0146379 -0.51946503 0
-1.010447 2.9829834 -0.51315385 0
-0.62816435 2.9541109 -0.51767099 0
-0.20051885 3.0104878 -0.51481813 0
0.19432926 2.9954104 -0.51104397 0
0.63509661 3.0342212 -0.51104969 0
0.99185127 2.9832766 -0.50908542 0
1.3983335 3.0001786 -0.5078162 0
1.793151 3.0041723 -0.499374 0
2.1648149 3.0097568 -0.49421582 0
2.5957968 3.0480092 -0.47533998 0
2.9731815 2.969214 -0.50030392 0
3.4005699 3.0312498 -0.51085764 0
3.799479 3.038691 -0.50756741 0
4.2446671 2.9960196 -0.46281925 0
4.5941644 3.0530078 -0.45975098 0
5.0071707 3.0610681 -0.46311489 0
5.4114723 3.0537972 -0.46032274 0
5.8051457 3.0674393 -0.45664901 0
6.1910753 3.0522523 -0.46230018 0
6.5958719 3.0607469 -0.46122077 0
6.9838324 3.0603611 -0.46527344 0
7.3900013 3.0425949 -0.46673226 0
7.7854395 3.0618455 -0.45753065 0
8.1861401 3.0670218 -0.46048823 0
8.5992012 3.0721569 -0.4613013 0
8.8609867 2.9832532 -0.44770932 0
-2.889451 3.454819 -0.53963643 0
-2.6709094 3.3966894 -0.48375008 0
-2.1991153 3.4088426 -0.51583189 0
-1.7731973 3.3670807 -0.5164395 0
-1.4032937 3.3932648 -0.5138039 0
-1.0306658 3.4063349 -0.51662111 0
-0.62331933 3.4054508 -0.51527977 0
-0.20968187 3.3724155 -0.51375401 0
0.19173703 3.407402 -0.52002352 0
0.56857198 3.4212415 -0.51749343 0
0.98648632 3.3672073 -0.510086 0
1.3920605 3.3798623 -0.50631148 0
1.809635 3.3734202 -0.49562603 0
2.1490431 3.3189557 -0.47947103 0
2.61092 3.3670647 -0.49093157 0
3.0287199 3.3662167 -0.51040059 0
3.4364824 3.4455688 -0.49470314 0
3.769614 3.3929703 -0.50433904 0
4.2331934 3.3971624 -0.47473994 0
4.5382504 3.4667218 -0.44664484 0
7.5346389 3.394062 -0.42185044 0
8.252677 3.4053521 -0.43899757 0
8.638195 3.3574255 -0.50201434 0
8.8361235 3.3982649 -0.4458296 0
-2.8090737 3.7988608 -0.49855199 0
-2.6636157 3.7902744 -0.48002827 0
-2.1628673 3.8145733 -0.5126763 0
-1.7695137 3.8402996 -0.49026462 0
-1.3949254 3.8152726 -0.50596464 0
-0.97540003 3.7817919 -0.51243347 0
-0.58517146 3.7994707 -0.51219463 0
-0.17203066 3.8527856 -0.48305413 0
0.16998722 3.8320224 -0.51145488 0
0.63073713 3.8198574 -0.51439303 0
0.98885328 3.8070447 -0.50923657 0
1.383466 3.7994912 -0.51724726 0
1.783319 3.7709591 -0.51852059 0
2.1766436 3.7939162 -0.51580846 0
2.6063519 3.7958207 -0.50709105 0
2.9942477 3.7888398 -0.48838532 0
3.3999019 3.6818516 -0.47611552 0
3.8051715 3.7588365 -0.51603436 0
4.2315769 3.8308172 -0.46198863 0
4.4613781 3.965338 -0.56620437 0
-2.6898136 4.1967797 -0.48380378 0
-2.1878772 4.1906905 -0.51025981 0
-1.7276959 4.1496353 -0.47096443 0
-1.3920748 4.1907325 -0.5023585 0
-0.98215938 4.086165 -0.47098839 0
-0.61849296 4.2072296 -0.51875633 0
-0.20008504 4.144784 -0.46052504 0
0.20537886 4.1833806 -0.50806051 0
0.63100386 4.18155 -0.51307774 0
0.99479401 4.1784019 -0.52376246 0
1.3746843 4.1998544 -0.5220868 0
1.7868986 4.1709847 -0.50856382 0
2.1809235 4.2063971 -0.52039909 0
2.6622152 4.1650677 -0.47022191 0
2.9477837 4.1378169 -0.475934 0
3.4582281 4.1749964 -0.50892907 0
3.7690601 4.1597319 -0.49429771 0
4.2484002 4.1974506 -0.46528205 0
4.5722008 4.1734653 -0.5173772 0
-2.8015559 4.6377611 -0.45184028 0
-2.682915 4.5851293 -0.48468113 0
-2.2086029 4.5908604 -0.51294327 0
-1.7669538 4.6043148 -0.5157811 0
-1.3624986 4.6118169 -0.51597303 0
-1.0191158 4.6301379 -0.51941091 0
-0.58979374 4.599483 -0.50555491 0
-0.22055122 4.6601176 -0.51039392 0
0.24243034 4.6036043 -0.51477325 0
0.59021783 4.5571404 -0.50817728 0
0.98033243 4.577055 -0.5055427 0
1.4230146 4.6181197 -0.52286822 0
1.7997437 4.5865145 -0.51149589 0
2.2092063 4.5752854 -0.51715696 0
2.5826442 4.6128798 -0.51619649 0
2.9944 4.6403699 -0.52559936 0
3.4213293 4.6133733 -0.52109045 0
3.8200624 4.6278915 -0.51183856 0
4.2187905 4.6253877 -0.48961326 0
4.5908232 4.7290525 -0.56219071 0
-2.6528411 4.9834571 -0.48476425 0
-2.1949522 4.9548626 -0.5193702 0
-1.7919641 5.0000811 -0.51257914 0
-1.4326724 4.9689498 -0.5130825 0
-1.0172038 4.948595 -0.51109219 0
-0.60876948 4.9613752 -0.51160961 0
-0.20543297 4.9680653 -0.51778823 0
0.1769225 4.9710774 -0.51211554 0
0.5589503 4.9509745 -0.51309246 0
0.99116457 4.930841 -0.50697017 0
1.4264717 4.9364085 -0.50794744 0
1.7715582 4.9344678 -0.51381838 0
2.1723433 4.9705949 -0.51648569 0
2.5779562 4.9519286 -0.51859534 0
3.0189748 4.9595375 -0.51198715 0
3.3621576 4.9580865 -0.52511537 0
3.7845948 4.9182053 -0.52301466 0
4.2263699 4.9672523 -0.46113458 0
4.6350646 4.8673267 -0.52711272 0
-2.6200402 5.4300332 -0.47422436 0
-2.188935 5.4679422 -0.47211155 0
-1.80927 5.4574337 -0.47121668 0
-1.3963383 5.4705129 -0.46306166 0
-0.99265176 5.4764633 -0.46719837 0
-0.62062103 5.4602127 -0.46299595 0
-0.19090682 5.4623165 -0.4599593 0
0.19577907 5.4494586 -0.46189573 0
0.61753786 5.4608645 -0.47064567 0
0.9960804 5.4501882 -0.46381563 0
1.3932829 5.472579 -0.46949917 0
1.8028923 5.4579234 -0.46720922 0
2.217536 5.4585037 -0.46524686 0
2.6039705 5.471808 -0.47249472 0
2.9900336 5.4619265 -0.47780925 0
3.3996079 5.4643764 -0.47059086 0
3.7645118 5.4486961 -0.4716548 0
4.1439352 5.4279428 -0.48367527 0
-0.1355496 5.7217312 -0.49151734 0
0.36236835 5.708281 -0.54421157 0
0.65731001 5.6755142 -0.54474509 0
0.98857021 5.6372919 -0.43619579 0
1.3854544 5.7154207 -0.51311499 0
1.7163296 5.6425605 -0.5527513 0
2.0472267 5.6318145 -0.5613749 0
2.5563076 5.7923226 -0.42045379 0
1.4488988 6.1453285 -0.42374241 0
2.5361109 6.0023298 -0.42594624 0
-9.6296082 -5.6173081 -0.32122344 0
-9.3423615 -5.6505175 -0.31811503 0
-9.1566877 -5.6736498 -0.32009611 0
-8.23316 -5.6248298 -0.22156978 0
-7.7884254 -5.6129155 -0.20674549 0
-7.3757324 -5.6154251 -0.25406796 0
-6.9708862 -5.6250148 -0.2475049 0
-6.6507668 -5.6177163 -0.15725838 0
-6.1584988 -5.6551356 -0.22732498 0
-5.7605243 -5.6216531 -0.19097003 0
-5.3589368 -5.6244397 -0.19533241 0
-5.0359812 -5.6168094 -0.20196709 0
-4.5575948 -5.6085415 -0.22745283 0
-4.181438 -5.6202931 -0.22098903 0
-3.8308258 -5.6150417 -0.205954 0
-3.4492044 -5.6110744 -0.21499652 0
-3.0703273 -5.6056786 -0.21272545 0
-1.0796641 -5.6123829 -0.17655107 0
3.9798927 -5.6029496 -0.28155199 0
4.0230188 -5.6566248 -0.23424245 0
5.4262643 -5.6117706 -0.13884708 0
5.7997494 -5.6175919 -0.13952562 0
-9.6742411 -5.4310923 -0.23497829 0
-9.4077568 -5.4475136 -0.11941071 0
-8.9973307 -5.5416546 -0.12329008 0
-8.5560169 -5.509131 -0.15831679 0
-8.206089 -5.5184088 -0.19717969 0
-7.797864 -5.5125079 -0.18181455 0
-7.4081278 -5.5080867 -0.1848297 0
-7.0057406 -5.5178785 -0.19711898 0
-6.612155 -5.5298467 -0.19483957 0
-6.2100611 -5.5341649 -0.1987063 0
-5.7963276 -5.5280676 -0.20589852 0
-5.3903341 -5.512713 -0.20639175 0
-4.98104 -5.5375075 -0.2110227 0
-4.5843434 -5.5170641 -0.2208619 0
-4.1863699 -5.5164742 -0.22358596 0
-3.7798898 -5.5087643 -0.21904932 0
-3.409806 -5.514389 -0.22270398 0
-3.0041363 -5.3766294 -0.20002262 0
-2.6579626 -5.5119791 -0.14265612 0
-2.1491129 -5.4231319 -0.1500967 0
-1.809978 -5.4776955 -0.13618512 0
-1.424943 -5.4878912 -0.14583243 0
-0.99598616 -5.4695177 -0.12584597 0
-0.63667476 -5.4578843 -0.071445167 0
-0.21185572 -5.5033069 -0.027703915 0
0.20589072 -5.4847493 -0.03909041 0
0.5843237 -5.4902978 -0.028718524 0
0.98904014 -5.4993811 -0.029408958 0
1.4289248 -5.4753628 -0.06519305 0
1.8008691 -5.4851165 -0.12042305 0
2.1830182 -5.476347 -0.12426217 0
2.5986795 -5.4226918 -0.16260718 0
2.9963839 -5.4584532 -0.16708155 0
3.4109864 -5.4446368 -0.1525411 0
3.8033311 -5.4854908 -0.17730688 0
4.2130365 -5.456181 -0.16474243 0
4.5637293 -5.476388 -0.15971607 0
4.9848795 -5.4977765 -0.17303607 0
5.4190059 -5.5488381 -0.16397923 0
5.8200903 -5.5446048 -0.15463515 0
6.2087984 -5.4322481 -0.14776845 0
6.448092 -5.4268136 -0.10578682 0
-9.6941957 -4.8757672 -0.13767713 0
-9.4933414 -4.9260087 -0.15751696 0
-8.9502735 -4.9070253 -0.16451026 0
-8.5628586 -4.8840599 -0.089928567 0
-8.1611767 -4.8842068 -0.22967327 0
-7.8199921 -4.9188561 -0.17418163 0
-7.4000087 -4.9202089 -0.13425949 0
-7.067441 -4.922574 -0.088723361 0
-6.5112228 -4.8739347 -0.097194053 0
-6.1559167 -4.8807244 -0.10311992 0
-5.6870856 -4.960176 -0.20057538 0
-5.4326344 -4.977746 -0.23230231 0
-5.0148373 -4.9835448 -0.20593971 0
-4.649085 -5.0111647 -0.28357443 0
-4.1801448 -4.9876828 -0.26208493 0
-3.7793691 -5.0245361 -0.25374162 0
-3.4668136 -5.0072293 -0.23775932 0
-2.9537525 -4.9895115 -0.19178486 0
-2.5734189 -5.0485549 -0.18001941 0
-2.2576964 -5.0758567 -0.17789307 0
-1.5654544 -5.1869345 -0.16660845 0
-0.97846901 -4.9936514 -0.27142981 0
-0.5846889 -4.9572124 -0.17563327 0
-0.21112905 -4.9356346 -0.1971152 0
0.19851334 -4.9261165 -0.20434694 0
0.57680637 -4.9355907 -0.17302057 0
0.98626989 -4.9161034 -0.20117386 0
1.4277509 -4.9395013 -0.19893768 0
1.6726937 -5.0180645 -0.21525353 0
2.0748971 -5.1239128 -0.33233243 0
2.6160705 -5.1685524 -0.16020857 0
3.091006 -5.0947943 -0.33796984 0
3.4432137 -5.075284 -0.16568807 0
3.8361945 -5.0907855 -0.18290108 0
4.2874508 -5.049284 -0.17827883 0
4.4774876 -5.0395055 -0.16009499 0
5.2388439 -5.034543 -0.13282833 0
5.9790468 -5.1659894 -0.23176576 0
6.3109536 -4.9996657 -0.15163271 0
6.596468 -4.8574286 -0.1633402 0
6.99858 -4.8519311 -0.15070887 0
7.3959346 -4.8528709 -0.15931705 0
7.7905993 -4.8484883 -0.15281282 0
8.1715498 -4.8409472 -0.1502174 0
-9.6993589 -4.5918012 -0.17582805 0
-9.4676151 -4.5612254 -0.18858321 0
-8.8838978 -4.5838399 -0.085254498 0
-8.6015205 -4.5733161 -0.1804477 0
-8.2711153 -4.5987334 -0.22364478 0
-7.8206205 -4.6632047 -0.23035756 0
-7.3105478 -4.6034436 -0.1753011 0
-7.1027942 -4.5244284 -0.1852421 0
-6.6191192 -4.5517349 -0.19067404 0
-6.2242436 -4.6359744 -0.22081508 0
-5.7149844 -4.5751615 -0.20274106 0
-5.2307749 -4.5124435 -0.19559069 0
-4.9259725 -4.5991354 -0.22057489 0
-4.5677805 -4.5775852 -0.14983609 0
-4.1903009 -4.5689206 -0.17884146 0
-3.7041068 -4.5291591 -0.37263429 0
-3.3963292 -4.5640316 -0.18829109 0
-2.9414062 -4.5934877 -0.18989499 0
-2.5417733 -4.776226 -0.18216418 0
-1.6418811 -4.4873877 -0.22509331 0
-1.2804066 -4.5843611 -0.23863733 0
-1.0863931 -4.557291 -0.22465503 0
-0.66641456 -4.5391946 -0.34887373 0
-0.3667272 -4.706912 -0.28349742 0
0.17963223 -4.750402 -0.1809105 0
0.65486449 -4.7930384 -0.12224923 0
1.0082732 -4.7805686 -0.17514014 0
1.2632327 -4.796279 -0.048253998 0
3.1388912 -4.4524231 -0.39304429 0
4.2742791 -4.5387602 -0.27743062 0
4.4684811 -4.6408501 -0.15184653 0
6.1771002 -4.7769012 -0.16007641 0
6.5458269 -4.7967482 -0.24418464 0
7.084939 -4.7145987 -0.20143017 0
7.4033713 -4.7921014 -0.24602349 0
7.7331953 -4.7846179 -0.29631817 0
8.2819881 -4.6138725 -0.14201863 0
-9.693593 -4.1813254 -0.16862673 0
-9.5346079 -4.1337495 -0.18900794 0
-8.6140347 -4.2954731 -0.24408813 0
-8.1906462 -4.2486677 -0.32959527 0
-7.8264847 -4.1383648 -0.24310869 0
-7.3619771 -4.1030631 -0.19068964 0
-7.0955682 -4.1820683 -0.17724511 0
-6.5458035 -4.1613522 -0.20410687 0
-6.2201476 -4.1494875 -0.15129405 0
-5.8100781 -4.1261725 -0.16133216 0
-5.4162498 -4.163094 -0.24312653 0
-4.9821815 -4.1656079 -0.20011525 0
-4.6516886 -4.1541786 -0.28008118 0
-4.2869978 -4.1318145 -0.23126851 0
-3.8965602 -4.1928339 -0.27399713 0
-3.4163945 -4.1676383 -0.2684654 0
-2.938657 -4.2064047 -0.18641603 0
-1.4308395 -4.1060567 -0.21054114 0
-1.0653763 -4.2514005 -0.23647676 0
-0.62009466 -4.2570171 -0.27224493 0
0.26933441 -4.2061634 -0.3267312 0
0.46313056 -4.2828431 -0.25491869 0
1.5120001 -4.2686224 -0.21481463 0
2.592433 -4.2705374 -0.20766392 0
3.5680387 -4.2723012 -0.19492368 0
3.6367543 -4.2738857 -0.24392989 0
4.3515158 -4.31141 -0.25252113 0
4.4916835 -4.3604693 -0.16793221 0
6.9912033 -4.363421 -0.16210154 0
7.33816 -4.1154566 -0.15898168 0
7.81427 -4.3420014 -0.20354198 0
8.2950525 -4.1890559 -0.14981717 0
-10.032239 -3.6863561 -0.30752289 0
-9.7166548 -3.7828255 -0.16290547 0
-9.4791422 -3.792711 -0.20591384 0
-8.9986038 -3.7721624 -0.15934242 0
-8.5899382 -3.8235755 -0.17133997 0
-8.1895647 -3.8265338 -0.18175299 0
-7.8065138 -3.8263774 -0.25476086 0
-7.3466792 -3.9123878 -0.19261742 0
-7.1002097 -3.8912587 -0.21627037 0
-6.6791673 -3.8826065 -0.24998215 0
-6.2361426 -3.8921123 -0.25390089 0
-5.836 -3.9003389 -0.25106731 0
-5.439476 -3.9466977 -0.19164619 0
-5.0359178 -3.8281543 -0.19827382 0
-4.6307163 -3.9800587 -0.15295818 0
-4.125423 -3.9296503 -0.36975306 0
-3.8852999 -3.8073585 -0.22178023 0
-3.3740036 -3.7797182 -0.21864475 0
-2.93137 -3.7734823 -0.19653992 0
-1.8341659 -3.7458656 -0.21753342 0
-1.4563075 -3.7022166 -0.22665972 0
-0.98982251 -3.8508427 -0.26114386 0
-0.57497823 -3.829751 -0.24580288 0
-0.29408503 -3.767731 -0.31452933 0
0.39649132 -3.748404 -0.2152621 0
0.52935356 -3.7774148 -0.31902692 0
0.85237741 -3.6786923 -0.30081099 0
1.5106159 -3.7546828 -0.21125726 0
1.7295585 -3.8734472 -0.30397373 0
2.2352648 -3.9846258 -0.26965672 0
2.5902948 -3.7554982 -0.21030165 0
3.1131859 -3.6374526 -0.21776938 0
3.5661309 -3.7622728 -0.19508968 0
3.6323705 -3.7582679 -0.2245391 0
4.5878515 -3.6975307 -0.17469421 0
5.7975769 -3.7636337 -0.20834735 0
6.7626252 -3.6679754 -0.19282719 0
6.8234739 -3.6497228 -0.21640201 0
8.288271 -3.7856951 -0.1548488 0
-9.7247581 -3.3992512 -0.16926911 0
-9.5342951 -3.416635 -0.19311842 0
-8.9188004 -3.4106474 -0.24201225 0
-8.6836948 -3.5457325 -0.18255192 0
-8.2020416 -3.349093 -0.36966622 0
-7.7136803 -3.3096914 -0.20559756 0
-7.3544846 -3.4281647 -0.20172204 0
-7.0580897 -3.437737 -0.34864241 0
-6.5912757 -3.3513615 -0.36925277 0
-5.4391565 -3.2473598 -0.15224758 0
-4.9013796 -3.5496788 -0.21687326 0
-4.6528773 -3.2929056 -0.21744756 0
-4.1673675 -3.2492089 -0.18777823 0
-3.7413559 -3.2276728 -0.18382466 0
-3.3210263 -3.3895068 -0.21620122 0
-2.8922024 -3.3922501 -0.18377046 0
-2.7194161 -3.3286707 -0.30023533 0
-2.168473 -3.395895 -0.18524964 0
-1.8049316 -3.3530014 -0.23650861 0
-1.4268986 -3.2984397 -0.28578448 0
-0.9962191 -3.3965836 -0.24503839 0
-0.61977983 -3.4152565 -0.35843298 0
-0.10609007 -3.4665761 -0.31989825 0
0.22772646 -3.5401258 -0.30252594 0
1.5335212 -3.3879061 -0.29318452 0
1.6593132 -3.4807816 -0.3433817 0
2.8670182 -3.5790617 -0.14551073 0
5.4365463 -3.4072945 -0.20790529 0
5.6697865 -3.251986 -0.19476834 0
6.7756271 -3.4917669 -0.19443712 0
6.8322539 -3.4627788 -0.2231594 0
7.6631527 -3.205723 -0.053326279 0
8.2940302 -3.407393 -0.13085482 0
8.4387388 -3.4738116 -0.19443063 0
-9.7299948 -3.000675 -0.17957756 0
-9.4822292 -2.9934561 -0.23610514 0
-8.9803543 -2.9808993 -0.26169059 0
-8.5340834 -2.9840167 -0.38356727 0
-8.0351067 -2.8814788 -0.37397957 0
-7.7638545 -3.0385408 -0.38282827 0
-7.4092765 -2.9754193 -0.31062454 0
-7.104691 -3.0237737 -0.37997735 0
-6.6530762 -3.0470524 -0.26088369 0
-6.3139553 -3.1338511 -0.0035975724 0
-5.6437674 -2.8768148 -0.094950609 0
-5.4168639 -3.0375359 -0.12138756 0
-4.8118801 -3.0407939 -0.20464508 0
-4.6322737 -2.9641888 -0.21620853 0
-4.3921471 -3.00279 -0.22598374 0
-3.8712101 -2.9431257 -0.11844078 0
-3.2707198 -3.0401421 -0.22306687 0
-2.8824852 -2.9742785 -0.1727463 0
-2.6677814 -2.9817545 -0.25583649 0
-2.1992345 -2.949295 -0.19164261 0
-1.8143315 -3.0478632 -0.20802373 0
-1.3100451 -2.975961 -0.18454485 0
-1.0796361 -3.0100312 -0.15555544 0
-0.48482776 -3.0584524 -0.10283341 0
-0.19411996 -3.0669744 -0.076612957 0
0.10170569 -3.0235784 -0.11132199 0
0.66788375 -3.0571535 -0.10488248 0
0.92738062 -2.9362509 -0.1913787 0
1.6101022 -2.8593864 -0.1633994 0
2.1503296 -3.0326827 -0.345368 0
2.6194654 -2.8614168 -0.16366962 0
3.3887725 -3.0045228 -0.14641066 0
4.1234856 -2.8826849 -0.34251153 0
4.7350435 -2.9826345 -0.18782081 0
5.0710039 -3.0675168 -0.18407574 0
5.3691549 -3.0048769 -0.22546965 0
6.6173782 -3.0884204 -0.20758891 0
6.9378715 -2.9358907 -0.21427689 0
7.6534772 -2.8800337 -0.20497218 0
8.2842875 -2.9867375 -0.14906113 0
8.5756521 -2.9001775 -0.20504245 0
-9.7161121 -2.6060281 -0.19084376 0
-9.5260344 -2.5585411 -0.32783765 0
-9.0027618 -2.589555 -0.34881556 0
-8.710351 -2.4447637 -0.38194591 0
-8.360363 -2.6532652 -0.37929761 0
-7.7253408 -2.5408108 -0.34745696 0
-7.3653188 -2.6143785 -0.31219846 0
-6.9367342 -2.5898776 -0.39396244 0
-6.6019526 -2.5783551 -0.23034742 0
-5.7223291 -2.5728517 -0.093570106 0
-5.443367 -2.6356025 -0.21438676 0
-4.695775 -2.5773451 -0.21861206 0
-4.296257 -2.7390983 -0.2870588 0
-3.8412621 -2.5074742 -0.20838201 0
-3.4183624 -2.5478926 -0.21251166 0
-2.9829447 -2.6464422 -0.230997 0
-2.7153375 -2.6213067 -0.28622594 0
-2.169724 -2.6123841 -0.18247658 0
-1.8447036 -2.5485137 -0.18612564 0
-1.2749748 -2.6063237 -0.13537319 0
-1.0693657 -2.5765381 -0.17673188 0
-0.64770424 -2.6374822 -0.022178624 0
-0.17040014 -2.5753651 -0.039438173 0
0.1773212 -2.5733116 -0.046064552 0
0.57702249 -2.6051824 -0.037176862 0
1.0403204 -2.6000354 -0.098500162 0
1.305835 -2.5981641 -0.10772582 0
2.6089954 -2.7999034 -0.14551322 0
3.1502481 -2.6927681 -0.17621468 0
3.4082451 -2.5105691 -0.18516259 0
4.3194919 -2.6850786 -0.15451038 0
4.7416563 -2.623858 -0.17839085 0
4.9766054 -2.5641408 -0.16490816 0
5.3415761 -2.6249526 -0.15837453 0
6.3935184 -2.6601348 -0.20744607 0
6.5433545 -2.6482 -0.22163789 0
7.7330704 -2.5025263 -0.15968068 0
8.2821159 -2.6054244 -0.14095186 0
-9.7228794 -2.1988144 -0.19223942 0
-9.5826321 -2.1578479 -0.24648282 0
-8.9996414 -2.2400804 -0.2381936 0
-8.169426 -2.2365615 -0.38860679 0
-7.891284 -2.0266004 -0.39650941 0
-7.568037 -2.241823 -0.39449888 0
-6.8316212 -2.3977656 -0.3932451 0
-6.7178135 -2.2517929 -0.29770017 0
-6.2201324 -2.0830534 -0.13561735 0
-5.8254128 -2.1333406 -0.16632946 0
-5.4794779 -2.047735 -0.29936969 0
-4.4533348 -2.3467913 -0.21987422 0
-4.2033768 -2.2975445 -0.21669014 0
-3.8160625 -2.1785245 -0.21998206 0
-3.3917081 -2.1561599 -0.20885286 0
-3.0109739 -2.2685699 -0.21734089 0
-2.626071 -2.1338756 -0.22912094 0
-2.2433493 -2.2383542 -0.24242313 0
-1.8137238 -2.231936 -0.21553084 0
-1.3165872 -2.2041872 -0.21591748 0
-1.0694654 -2.2142444 -0.18174204 0
-0.66500813 -2.2043405 -0.078570284 0
-0.18670912 -2.2207568 -0.13760781 0
0.18611535 -2.2146993 -0.13252974 0
0.59159881 -2.205719 -0.11777735 0
0.97484016 -2.2104957 -0.17706288 0
1.4120079 -2.0471966 -0.26301745 0
1.7095127 -2.0462093 -0.27111217 0
2.6179035 -2.3676615 -0.18812296 0
3.9875517 -2.1637321 -0.18364494 0
4.1825709 -2.3378987 -0.1931307 0
5.1011167 -2.3252397 -0.19816619 0
5.4219398 -2.0066977 -0.17972665 0
7.6942701 -2.0693808 -0.16927956 0
8.2935066 -2.3133194 -0.15503702 0
8.5788364 -2.2196712 -0.14907764 0
8.8916588 -2.1066589 -0.12531102 0
-9.7102737 -1.7768921 -0.19697474 0
-9.4149647 -1.9718082 -0.38004589 0
-8.8491077 -1.8344622 -0.29603946 0
-8.535037 -1.6368433 -0.22132133 0
-8.1939926 -1.6482209 -0.22109509 0
-7.7536178 -1.640511 -0.23417878 0
-7.4153461 -1.6451826 -0.19190291 0
-6.9674072 -1.6718295 -0.23543474 0
-6.5968041 -1.6550208 -0.19447997 0
-6.2194648 -1.6511612 -0.19643147 0
-5.7828045 -1.6471888 -0.22378476 0
-5.4263406 -1.684363 -0.22298431 0
-4.9832015 -1.643621 -0.21150544 0
-4.5964341 -1.6405504 -0.21072608 0
-4.2866364 -1.6665035 -0.17378823 0
-3.7395773 -1.7968235 -0.15966573 0
-3.3253996 -1.8312403 -0.26646313 0
-2.9377818 -1.8176392 -0.24024412 0
-2.5856841 -1.7587801 -0.2540819 0
-2.1597924 -1.8125379 -0.23485167 0
-1.806895 -1.8447049 -0.33310622 0
-1.2561702 -1.8373224 -0.13281688 0
-1.0889301 -1.8028363 -0.18191108 0
-0.66861933 -1.8197925 -0.075206488 0
-0.35002136 -1.8039957 -0.15427527 0
0.16588756 -1.8651009 -0.050092477 0
0.58597797 -1.790269 -0.18850803 0
1.0660688 -1.7875059 -0.20873804 0
1.4207822 -1.7958719 -0.25407961 0
1.6959777 -1.7753865 -0.26476118 0
2.3474493 -1.6644411 -0.19265245 0
3.3800206 -1.6746893 -0.1797049 0
4.2336602 -1.7620372 -0.15974799 0
5.976634 -1.9545341 -0.22300526 0
6.2537966 -1.7843682 -0.21560773 0
6.5628262 -1.7371358 -0.21737069 0
6.8247633 -1.8100388 -0.20782164 0
7.8458862 -1.9790134 -0.21232045 0
8.2131109 -1.6711875 -0.098341122 0
8.6809187 -1.6915371 -0.21525121 0
8.8875551 -1.8043033 -0.1517693 0
-9.7123127 -1.4141685 -0.20606482 0
-9.5982666 -1.4646987 -0.37307873 0
-9.098485 -1.5152975 -0.25524396 0
-8.552124 -1.4955138 -0.2147662 0
-8.2188568 -1.4890296 -0.2070104 0
-7.8085132 -1.4797596 -0.19869871 0
-7.4125714 -1.4973613 -0.20594639 0
-6.9863448 -1.4878703 -0.21953452 0
-6.6007986 -1.4921532 -0.20624232 0
-6.198123 -1.4856641 -0.20212056 0
-5.7980614 -1.4851933 -0.2019109 0
-5.4016538 -1.4891 -0.19997592 0
-5.0071936 -1.4856195 -0.18776147 0
-4.5936275 -1.492442 -0.19140133 0
-4.3154588 -1.4949081 -0.17534561 0
-3.4108269 -1.3314478 -0.21503167 0
-2.9251974 -1.5139467 -0.19282401 0
-2.613059 -1.443951 -0.18280396 0
-2.2687745 -1.4318638 -0.29771221 0
-1.8959675 -1.4248488 -0.24523556 0
-1.246089 -1.368369 -0.22001781 0
-1.0806589 -1.4004394 -0.184343 0
-0.64410162 -1.3623432 -0.06702745 0
-0.34975392 -1.3893563 -0.16480497 0
0.20500728 -1.2132168 -0.10287279 0
0.58197898 -1.448616 -0.23234931 0
0.98954552 -1.438508 -0.22115386 0
1.4021045 -1.4802836 -0.26225033 0
1.7341926 -1.4965557 -0.26424319 0
2.3481665 -1.4143628 -0.21696518 0
3.4632714 -1.343906 -0.15366688 0
4.5586143 -1.2060148 -0.37709635 0
7.1711645 -1.3480318 -0.20249343 0
7.3382649 -1.3922144 -0.19141227 0
7.9581542 -1.380422 -0.16405907 0
8.0678244 -1.427524 -0.13163318 0
8.5513248 -1.5468447 -0.19504705 0
8.8771582 -1.5283408 -0.19644406 0
-9.6954956 -1.035638 -0.21389933 0
-9.5433197 -0.94401026 -0.20894532 0
-8.9272652 -0.97035098 -0.31959757 0
-8.5070353 -0.87211436 -0.32270882 0
-8.2212076 -0.87649584 -0.19506182 0
-7.7557268 -0.86752844 -0.21919957 0
-7.4238658 -0.89776361 -0.24725121 0
-7.0263124 -0.93666643 -0.22083382 0
-6.5365868 -0.92793894 -0.19549729 0
-6.1866832 -0.94208199 -0.25190356 0
-5.7268252 -0.92091858 -0.24355075 0
-5.4172072 -0.99281764 -0.22984613 0
-4.9582014 -1.0230458 -0.17745684 0
-4.5551805 -1.0031388 -0.18042859 0
-4.1920962 -1.0511397 -0.18664613 0
-3.8179493 -0.96486801 -0.22201777 0
-3.5546792 -0.99665296 -0.19823155 0
-2.9837284 -0.98305625 -0.15991117 0
-2.6588838 -0.94713801 -0.21810417 0
-2.2590401 -0.96913719 -0.17888083 0
-1.7690525 -0.98887211 -0.18603553 0
-1.2441919 -1.0948911 -0.12910336 0
-1.0706582 -0.98940057 -0.20997697 0
-0.66115034 -0.87697512 -0.14668719 0
-0.35423568 -0.97862864 -0.1769723 0
0.18141778 -1.0445436 -0.19472313 0
0.61230803 -0.84945899 -0.13082111 0
1.3051717 -0.97288197 -0.23208466 0
1.8970934 -0.87211889 -0.24221769 0
2.07916 -0.88792068 -0.24471083 0
3.5113409 -1.0870631 -0.25885028 0
3.6898389 -0.9438554 -0.34849888 0
4.2538624 -1.0567138 -0.3858563 0
4.605484 -1.0710344 -0.30970198 0
4.8157268 -1.0382206 -0.19897586 0
5.3530846 -1.10343 -0.22330096 0
5.7941723 -0.93663335 -0.18601908 0
7.0369029 -1.0376748 -0.16271579 0
7.3962088 -1.1309767 -0.065228052 0
7.9594569 -0.9921416 -0.15864536 0
8.0356398 -0.99363863 -0.11822426 0
8.8927431 -0.99333793 -0.32149243 0
-9.6691294 -0.60180157 -0.22140901 0
-9.5484715 -0.60602659 -0.22530578 0
-9.1758652 -0.73564756 -0.29570714 0
-8.6008186 -0.69947839 -0.17240533 0
-8.2018366 -0.6656276 -0.21724679 0
-7.7988644 -0.646891 -0.24573547 0
-7.4524732 -0.58445179 -0.28411534 0
-7.0939813 -0.71522236 -0.272908 0
-6.7136064 -0.47840199 -0.2673609 0
-6.2915177 -0.59835237 -0.16843562 0
-5.7931194 -0.64999866 -0.25293174 0
-5.4366698 -0.56188452 -0.17759457 0
-5.0102787 -0.58674377 -0.26785526 0
-4.7067122 -0.54145992 -0.27622765 0
-4.2384949 -0.57593805 -0.17025907 0
-3.8246636 -0.6882661 -0.23104194 0
-3.5526819 -0.6177094 -0.19588137 0
-2.9538589 -0.61089551 -0.17091897 0
-2.5166292 -0.48404813 -0.19117716 0
-2.1824899 -0.64935821 -0.17670095 0
-1.6968688 -0.70051891 -0.27059484 0
-1.233156 -0.63711423 -0.19347052 0
-1.0436971 -0.63621444 -0.24926774 0
-0.70153683 -0.75155765 -0.11713019 0
-0.24758717 -0.6432659 -0.16695446 0
0.13675867 -0.60216486 -0.11405113 0
0.64706981 -0.61325008 -0.19240573 0
0.93297076 -0.58094507 -0.20136864 0
1.3506714 -0.58298451 -0.23015478 0
1.8722731 -0.73036736 -0.24686633 0
2.0470481 -0.71971458 -0.24913371 0
2.4098098 -0.48911905 -0.16674644 0
3.1893282 -0.51262093 -0.36668307 0
3.5051866 -0.4339923 -0.30403668 0
3.8661778 -0.49816963 -0.26137805 0
4.3164048 -0.56314665 -0.33496639 0
4.7977433 -0.60061461 -0.32820702 0
4.9543586 -0.58628392 -0.22169507 0
5.5623784 -0.53738338 -0.095879585 0
5.7330146 -0.72409177 -0.18656133 0
7.0502172 -0.66778827 -0.16566624 0
7.3511152 -0.66394508 -0.2236723 0
7.9503918 -0.65950209 -0.17047855 0
8.0730295 -0.63533252 -0.13244811 0
8.537672 -0.49563462 -0.16120091 0
8.8843946 -0.47679213 -0.19629699 0
-9.7127876 -0.22420852 -0.20213819 0
-9.4811583 -0.27288872 -0.25785702 0
-7.3771925 -0.20480897 -0.18424299 0
-6.8062267 -0.054191947 -0.11440171 0
-6.6859121 -0.12001313 -0.20839952 0
-6.1520634 -0.15160346 -0.2136303 0
-5.7130561 -0.1209985 -0.20480126 0
-5.2685876 -0.10113176 -0.15464433 0
-4.9695067 -0.1407896 -0.21735162 0
-4.5383482 -0.098814346 -0.13153207 0
-4.2679238 -0.10468426 -0.10862853 0
-3.6553314 -0.34581351 -0.189321 0
-3.2541511 -0.31875053 -0.1138438 0
-2.8287201 -0.27784085 -0.16384427 0
-2.5712912 -0.29647791 -0.20536458 0
-1.6826212 -0.20354655 -0.19712532 0
-1.3873485 -0.27489582 -0.21623962 0
-1.0161252 -0.23704661 -0.29466504 0
-0.65237331 -0.22627133 -0.11832469 0
-0.15844472 -0.13981934 -0.11074674 0
0.25765154 -0.27380854 -0.13846111 0
0.64607203 -0.16072455 -0.16625051 0
1.0143979 -0.27942735 -0.22695535 0
1.3649595 -0.26744294 -0.21465775 0
1.6127033 -0.085202277 -0.17186725 0
2.1307385 -0.21811847 -0.31206223 0
2.4429216 -0.26528385 -0.20759383 0
2.9699128 -0.10216862 -0.26398361 0
3.3656063 -0.27458787 -0.30720028 0
3.6652374 -0.32325599 -0.34546867 0
4.1862164 -0.030903824 -0.25329834 0
4.5912938 -0.16705512 -0.1853599 0
4.95087 -0.21153674 -0.29744005 0
5.3573112 -0.18285879 -0.26044208 0
5.7762461 -0.028055608 -0.11371244 0
6.2091475 -0.17040223 -0.11685854 0
6.624723 -0.066530742 -0.10258422 0
6.9066749 -0.068468213 -0.094368055 0
7.3233733 -0.20292857 -0.36262524 0
7.7912855 -0.17657852 -0.13125576 0
8.2698641 -0.36115527 -0.25522941 0
8.6589518 -0.28290987 -0.15593298 0
8.8972063 -0.185029 -0.14714067 0
-9.7248449 0.18956222 -0.21293025 0
-9.5072184 0.22297788 -0.23884159 0
-8.5879164 0.11759297 -0.14840454 0
-8.1534576 0.057314653 -0.16718514 0
-7.7621346 0.062975608 -0.12475105 0
-7.4094338 0.086968452 -0.26869497 0
-6.9694557 0.15410841 -0.25603414 0
-6.6039472 0.14877288 -0.14708196 0
-6.2441764 0.06614884 -0.17749746 0
-5.8834548 0.076357543 -0.13957667 0
-5.510056 0.20177811 -0.18948171 0
-5.090692 0.12153394 -0.17639755 0
-4.6516099 0.01715517 -0.16036339 0
-4.1234589 0.36087006 -0.034002841 0
-3.7544179 0.17832153 -0.12992819 0
-3.3340516 0.090778932 -0.090488195 0
-2.9925678 0.30837211 -0.15408646 0
-2.46696 0.23074953 -0.16331147 0
-2.2038968 0.18121845 -0.10932642 0
-1.7475239 0.19172673 -0.20569061 0
-1.0419338 0.18321504 -0.22527726 0
-0.62018818 0.23827802 -0.15947178 0
-0.24578953 0.16727969 -0.16590202 0
0.32384327 0.28590798 -0.23308925 0
0.6123848 0.191992 -0.02548174 0
1.0568826 0.077928856 -0.21110031 0
1.3642149 0.24786481 -0.21772335 0
1.8242455 0.30019233 -0.27888632 0
2.2829328 0.13224471 -0.27799344 0
2.5769458 0.24870646 -0.27486402 0
3.321146 0.19263238 -0.29370141 0
3.9660225 0.39880249 -0.18142918 0
4.2065878 0.19050086 -0.22554187 0
5.0162725 0.20231348 -0.28855366 0
5.5587578 0.25436807 -0.13024761 0
5.6765089 0.1720816 -0.11829664 0
6.0660172 0.1586442 -0.21075049 0
6.5151019 0.12841746 -0.15365216 0
6.8839397 0.17334631 -0.20783147 0
7.3720055 0.31186438 -0.24831137 0
7.8702264 0.16375181 -0.06482181 0
8.530509 0.17543614 -0.21974608 0
8.8886719 0.20601963 -0.16137823 0
-9.7094584 0.60254055 -0.21613911 0
-9.4949665 0.5807417 -0.20191827 0
-7.6071339 0.77612484 -0.34265816 0
-7.4167709 0.74885368 -0.13115603 0
-6.687192 0.64210671 -0.17845182 0
-6.2994471 0.73640037 -0.17970043 0
-4.2255888 0.63345462 -0.11958373 0
-3.8778505 0.56765366 -0.14929616 0
-3.3566315 0.53315288 -0.17082979 0
-2.868757 0.64960903 -0.19483663 0
-2.7027447 0.70891291 -0.18773519 0
-2.2162781 0.64108258 -0.16026193 0
-1.8700433 0.68303359 -0.14051211 0
-1.4188206 0.61548525 -0.18158013 0
-0.91765052 0.59366792 -0.21497977 0
-0.66620034 0.48617753 -0.14296061 0
-0.22586536 0.65286142 -0.22167742 0
0.32915941 0.61066079 -0.23583713 0
0.4189719 0.48633739 -0.20441891 0
1.1437216 0.63092411 -0.098129332 0
1.4652512 0.43826517 -0.2160964 0
1.7859783 0.6799404 -0.32088152 0
2.2514646 0.5963766 -0.28548717 0
3.0403934 0.63430929 -0.23519698 0
3.2551029 0.47574872 -0.23973073 0
3.6928234 0.64448488 -0.32914993 0
4.1188059 0.68101156 -0.22052896 0
4.7206621 0.63444114 -0.33919406 0
5.4164238 0.72801113 -0.17285165 0
5.792469 0.48022598 -0.18316771 0
6.039495 0.41660315 -0.26586258 0
6.6904082 0.64510077 -0.22506192 0
6.8570313 0.6475479 -0.21799935 0
7.4309058 0.64854014 -0.3345452 0
8.0745964 0.61035311 -0.027870506 0
8.7662163 0.58663076 -0.19667572 0
8.887785 0.61406171 -0.17727284 0
-9.6503305 0.96695596 -0.18966785 0
-9.5487413 0.98117948 -0.22588612 0
-9.025732 0.94065195 -0.29268333 0
-8.6376581 1.1637263 -0.15873396 0
-7.8755445 0.94653612 -0.088450387 0
-7.3315644 1.0306342 -0.2004441 0
-7.0073452 1.0261011 -0.18366048 0
-6.592823 1.0293121 -0.19642662 0
-6.2024169 1.0332426 -0.19141345 0
-5.7880321 1.0527047 -0.17985968 0
-5.5942211 0.99614882 -0.27844816 0
-4.232245 0.98470324 -0.20532039 0
-3.8634574 0.97983724 -0.072704628 0
-3.4323957 0.85666633 -0.12216204 0
-2.8828433 1.0106094 -0.20285581 0
-2.7786281 0.97325039 -0.21652403 0
-2.257813 1.0185883 -0.16559626 0
-1.1267958 0.81325603 -0.17786634 0
-0.65867442 0.93242866 -0.21699877 0
-0.27204084 0.95052505 -0.20301545 0
0.28876778 1.057705 -0.21315473 0
0.62695736 1.0356419 -0.3282254 0
1.4595476 1.0364926 -0.2358727 0
1.8743134 1.0030077 -0.34610873 0
2.2176752 1.0432862 -0.24536367 0
2.6445351 0.89219177 -0.3829504 0
3.029954 1.1061217 -0.20088238 0
3.3770053 1.0363997 -0.19968782 0
3.8536117 0.95606357 -0.17842191 0
4.1185613 1.1424632 -0.27401015 0
4.5765638 1.0166965 -0.22937372 0
4.9918146 1.0507809 -0.3458789 0
5.4199781 1.0438811 -0.16747633 0
6.7673512 1.0330846 -0.18535066 0
6.8261619 1.0194374 -0.16039366 0
7.4678717 1.1843296 -0.31735042 0
8.0927296 0.80806082 -0.013805985 0
8.7977905 1.046611 -0.38292336 0
8.8772793 0.99283975 -0.16911803 0
-9.6667213 1.4214076 -0.18326356 0
-9.4515715 1.3865551 -0.17508467 0
-9.147809 1.4850155 -0.21522206 0
-8.5346088 1.5881561 -0.23548798 0
-7.6927185 1.418949 -0.11200747 0
-7.4053664 1.3777689 -0.28019932 0
-7.0883255 1.2514248 -0.20094681 0
-6.6207857 1.2418437 -0.12275013 0
-6.29603 1.2543974 -0.17747426 0
-5.668643 1.3959513 -0.18823417 0
-5.557157 1.3837602 -0.12666947 0
-4.1316419 1.3161324 -0.21571054 0
-3.5431902 1.2890762 -0.021379471 0
-2.9525681 1.3573723 -0.19814365 0
-2.7169056 1.339661 -0.20952682 0
-1.3061173 1.426761 -0.20760919 0
0.21335948 1.2170689 -0.096745946 0
0.60655451 1.3012509 -0.36656034 0
1.4535887 1.3387821 -0.12086549 0
1.7551872 1.3902155 -0.27161512 0
2.2038972 1.2541256 -0.24349217 0
2.5924988 1.355767 -0.31384915 0
2.90592 1.3766272 -0.27585596 0
3.4033351 1.387911 -0.17068134 0
3.9512997 1.4973018 -0.23694165 0
4.1815963 1.4576287 -0.19199313 0
4.6960592 1.4156756 -0.28633338 0
4.8323312 1.4856504 -0.33261275 0
5.4346128 1.4710486 -0.15460917 0
5.8435616 1.5011053 -0.12913735 0
6.3511209 1.4999261 -0.14529701 0
6.690526 1.4688367 -0.13938722 0
6.844646 1.3965988 -0.12811951 0
8.7698994 1.3451958 -0.36867341 0
8.8850498 1.4032481 -0.17311631 0
-9.6917248 1.8011713 -0.21780053 0
-9.3661146 1.8964031 -0.17741516 0
-8.9772339 1.6898082 -0.17731205 0
-8.5457373 1.7213196 -0.18251836 0
-8.3876114 1.8049511 -0.16448671 0
-7.4250159 1.7838638 -0.27864721 0
-5.6428313 1.8142551 -0.17936122 0
-5.5756407 1.7897702 -0.12116495 0
-3.7160568 1.9474643 -0.19742303 0
-3.4230402 1.9517825 -0.21230094 0
-2.9601703 1.7827957 -0.20414419 0
-2.7338264 1.8665684 -0.18985823 0
-1.5363822 1.823884 -0.20019551 0
-0.40524158 1.8891759 -0.17049295 0
0.11067294 1.8200176 -0.18260968 0
0.40048555 1.8990921 -0.1597715 0
1.3803467 1.8079519 -0.16856629 0
1.7905831 1.8739283 -0.1719985 0
2.1649559 1.9164642 -0.2976791 0
2.5147157 1.908227 -0.17065224 0
3.1394906 1.7109447 -0.20762479 0
3.3916287 1.6341708 -0.19241281 0
4.252389 1.9625046 -0.18425022 0
4.8324184 1.797778 -0.3330839 0
5.4343886 1.7447932 -0.1422341 0
5.8390875 1.7791367 -0.18835284 0
6.3517284 1.7504016 -0.17407529 0
6.6790385 1.7849935 -0.19447507 0
6.8246474 1.7833612 -0.20285726 0
7.5426435 1.7796448 -0.2993235 0
8.7273045 1.6627743 -0.36616623 0
8.8904848 1.7785308 -0.18086852 0
-9.6998549 2.1457417 -0.20884812 0
-9.3644485 2.2317772 -0.20881654 0
-9.0253582 2.2064328 -0.2530531 0
-8.5228605 2.0478411 -0.21038289 0
-8.3759203 2.2738972 -0.34722459 0
-7.4264183 2.1968825 -0.25077879 0
-6.9012794 2.3413174 -0.10314896 0
-5.6490784 2.2116132 -0.20251155 0
-5.5833225 2.2294023 -0.13928886 0
-3.8133907 2.2052042 -0.2168548 0
-3.3563185 2.0370901 -0.2131163 0
-2.9275064 2.1935332 -0.19435382 0
-2.7007949 2.299542 -0.27344069 0
-0.57255352 2.1897995 -0.1914546 0
-0.041677818 2.2278209 -0.16207696 0
0.40765131 2.1528578 -0.2315325 0
1.437515 2.3537037 -0.18539767 0
1.9464353 2.1269879 -0.28690079 0
2.1180601 2.1321943 -0.27281666 0
2.5674865 2.3496823 -0.28781432 0
4.2493958 2.1795034 -0.16754928 0
4.9609323 2.17769 -0.32649326 0
5.4332032 2.3296099 -0.17777129 0
5.7560768 2.1865814 -0.17131694 0
6.351573 2.0819983 -0.25065604 0
6.6869783 2.1135054 -0.21060662 0
7.5221939 2.0125613 -0.29193816 0
7.6270838 2.3879902 -0.28168899 0
8.7966976 2.137795 -0.34115368 0
8.8840637 2.2040789 -0.21852973 0
-9.67836 2.5653665 -0.25264743 0
-9.4842548 2.5813723 -0.26113069 0
-9.1268997 2.5075903 -0.20077506 0
-8.4540672 2.6263182 -0.24036236 0
-8.2299795 2.5990622 -0.24998799 0
-7.8807178 2.5825572 -0.22665665 0
-7.3263397 2.6588044 -0.17927502 0
-6.9926848 2.4886224 -0.1233111 0
-6.6414108 2.6750975 -0.055807531 0
-6.224741 2.5953512 -0.075112224 0
-5.6554561 2.5770566 -0.19473036 0
-5.5812392 2.5665028 -0.12530378 0
-4.9878993 2.6413465 -0.18244831 0
-4.6265554 2.6522794 -0.18211572 0
-3.830693 2.6058147 -0.20658326 0
-3.2260101 2.5878692 -0.19384792 0
-2.8953183 2.58887 -0.18725757 0
-0.1126667 2.4509544 -0.18485411 0
0.41021705 2.403831 -0.18625693 0
2.099946 2.5908353 -0.31714818 0
2.6351728 2.7867661 -0.39697933 0
3.4215586 2.6362357 -0.19619833 0
3.6709824 2.6655223 -0.26150715 0
4.252697 2.6893353 -0.18528497 0
4.4829879 2.6710761 -0.15747927 0
5.0533237 2.6257601 -0.35256162 0
5.4432011 2.6082726 -0.34297484 0
5.8298411 2.4975734 -0.069800332 0
6.0729179 2.7003002 -0.3402065 0
6.5567513 2.5712771 -0.28089654 0
6.9090919 2.438046 -0.23648918 0
7.4029322 2.7084529 -0.23218396 0
7.6157169 2.5302587 -0.27735099 0
8.759963 2.5525718 -0.3261624 0
