# .PCD v0.7 - Point Cloud Data file format
VERSION 0.7
FIELDS x y z intensity roll pitch yaw time
SIZE 4 4 4 4 4 4 4 8
TYPE F F F F F F F F
COUNT 1 1 1 1 1 1 1 1
WIDTH 94
HEIGHT 1
VIEWPOINT 0 0 0 1 0 0 0
POINTS 94
DATA ascii
3.4556928e-05 3.7686583e-05 4.0921626e-05 0 3.6792063e-08 1.5305486e-07 -1.2327246e-11 38.5
1.0807972 -0.0064672395 0.0053621256 1 -0.001294145 -0.00088607299 7.6465956e-05 78.4
2.1503444 -0.0077453428 0.0086171748 2 -0.0020245579 -0.00096158712 0.0001028691 80.55
3.227114 -0.0075910464 0.01556776 3 -0.0034739005 0.00071313401 0.00048574741 82.7
3.7960508 -0.08865758 0.011585695 4 -0.0024184736 -0.003678509 -0.39728385 84.35
4.6720877 -0.6499874 0.010931755 5 -0.0031413983 -0.0019787203 -0.54310858 86.6
5.591125 -1.2091857 0.012678968 6 -0.0060795373 -0.003913159 -0.54408234 88.75
6.077857 -1.5629523 0.0025777468 7 -0.0035144642 -0.0027467483 -0.81824738 90.3
6.0551782 -1.5975381 0.015599403 8 -0.0019792882 -0.0033472688 -1.021672 90.55
6.5944624 -2.4952691 0.0044798404 9 -0.0027245844 -0.0028515412 -1.0273354 92.65
6.5608578 -2.5665691 0.0076031405 10 -0.0011761758 -0.0030477662 -1.343293 93.15
6.4979939 -2.5648825 0.018398235 11 0.00082745915 -0.0031476095 -1.6629914 93.5
6.3323493 -3.4559474 0.0068596997 12 9.1668102e-05 -0.003865055 -1.9775528 95.75
6.2719469 -3.434093 0.01550174 13 0.0021462196 -0.0033149421 -2.3089786 96.15
5.9953451 -3.6365697 0.016549081 14 0.0024731825 -0.0019743873 -2.6310601 97.25
5.9735718 -3.5781176 0.017173344 15 0.0026619402 -0.00067523983 -2.9223363 97.6
4.9713125 -3.8026731 0.015752066 16 0.0022601485 -0.00050361548 -2.7659674 100.4
3.9338882 -4.1664791 0.01438112 17 0.00027491312 -0.0020835279 -2.7713411 102.6
3.8679733 -4.1000113 0.030803194 18 0.0031003596 -0.00034158709 -2.978358 116.35
2.8164797 -4.0150604 0.015557543 19 0.0018717229 -0.00095344859 -3.1400044 118.75
1.8068377 -4.0146055 0.015945256 20 0.001143224 -0.0014911051 -3.140528 120.75
0.72657502 -4.0059514 0.014184881 21 -0.00010896888 -0.0016361148 -3.1410773 122.9
-0.35733023 -4.0100493 -0.0056082858 22 -0.0091393236 -0.0011760145 -3.1387515 125.1
-1.3659199 -4.0279608 0.016696302 23 -0.00086864072 0.00029623939 -3.138588 127.15
-1.7504154 -3.9570212 -0.055055827 24 -0.010493673 -0.0040903254 2.8189347 128.35
-1.7522961 -3.910846 -0.0069474359 25 -0.0034086553 -0.0002330588 2.5756707 128.65
-1.7131196 -3.8727515 0.00078954455 26 -0.0020558001 -0.0017207977 2.2848816 129
-1.7997669 -3.68171 0.00015461299 27 -0.0020394248 -0.0035377059 2.0840271 130.5
-2.1487963 -2.7310262 0.0032914858 28 -0.00043189051 -0.0045656525 1.9540683 132.65
-2.5300398 -2.0029092 0.010169018 29 0.0010756722 -0.0011181399 2.2311127 134.75
-2.5767803 -2.0489292 0.012750253 30 0.0018289402 -0.001319895 2.4806135 135.05
-2.6061432 -2.089318 0.0095881205 31 0.0012914432 -0.0019691908 2.7084765 135.4
-2.9326077 -2.0035052 0.0050991699 32 -0.0011846886 -0.003973308 2.9604051 136.5
-3.2100291 -2.0289125 0.0068516252 33 -0.00091143383 -0.0032003829 -3.0312767 137.5
-3.4871097 -2.1281371 0.0057874019 34 4.358697e-05 -0.0020082321 -2.7681468 138.5
-4.3605399 -2.6631672 0.00059367536 35 -0.0040594097 -0.0028984125 -2.6232283 140.8
-5.2278619 -3.1713402 0.0055440478 36 -0.0021852236 -0.0016358485 -2.6230183 142.8
-5.363894 -3.1930563 -0.00070993759 37 -0.0030769333 -0.0037048568 -2.8745952 143.4
-5.4410238 -3.1611538 0.014664828 38 0.002152418 -0.0033544151 -3.1327343 143.85
-5.6039472 -3.1176457 0.010080846 39 -0.00068658951 -0.0053807106 2.9075198 144.5
-5.5833507 -3.079483 0.014382198 40 0.0022672112 -0.0036701551 2.6569586 144.8
-6.2350993 -2.8265803 0.012323651 41 0.0023553618 -0.0043623769 2.9648359 147
-6.2315483 -2.8772545 0.014594055 42 -0.0002397994 -0.0052276975 -3.0707192 147.35
-7.3104434 -2.9553561 0.0094582783 43 0.0031061433 -0.0022089663 -3.0707211 149.55
-8.2777157 -3.0850036 -0.098456025 44 -0.0017412886 0.0088164732 -2.8347025 151.9
-8.1674547 -3.186326 -0.12503323 45 0.013324223 0.0013592832 -2.4586167 152.25
-8.0751162 -3.0852568 -0.17622606 46 0.0099639613 0.015006809 -1.9630014 152.75
-7.9560332 -2.997066 -0.23963098 47 0.023064295 0.010464941 -1.5338043 153.25
-7.8431787 -2.8295207 -0.30617848 48 0.025241164 -0.032607462 -1.0394216 153.75
-7.8227186 -2.7010322 -0.35838482 49 0.0040815659 -0.063056834 -0.70501357 154.1
-7.5625257 -2.4613097 -0.51383674 50 -0.02406488 -0.084806569 -0.31398332 155.25
-7.3087506 -2.0957589 -0.64467967 51 -0.049449015 -0.094410263 -0.037950177 156.25
-6.6021156 -1.4370271 -0.39106005 52 0.026469793 -0.04247836 -0.087100588 158.15
-5.5527525 -1.6511277 -0.2722688 53 0.008888375 -0.044388246 -0.084153116 160.3
-4.7613707 -1.6632545 -0.16160072 54 0.002775948 -0.028805984 0.22999568 162.3
-4.9159427 -2.385391 0.13382401 55 -0.031092405 0.010505955 0.54634309 162.7
-4.9680824 -2.3917997 0.11201771 56 -0.0084157661 0.022383496 0.94090062 163.3
-4.0951524 -1.9119732 0.014654822 57 0.0034803783 -0.0014057953 1.0031614 165.8
-3.9961193 -1.66207 0.0022461123 58 0.0009401837 -0.00048454184 1.3006641 166.5
-3.9848468 -1.5863131 0.0069760713 59 -0.00059962581 -0.00057623792 1.519531 166.8
-3.967432 -1.4999752 0.0087344078 60 -0.0021383308 0.00032281131 1.7909071 167.15
-3.9816527 -1.4166051 -0.0020113168 61 -0.0025436198 -0.0006521481 2.0586348 167.5
-4.5304642 -0.57021511 -0.019642944 62 -0.0088159125 -0.0039469381 2.2454858 169.65
-4.6662612 -0.48499393 -0.008136387 63 -0.0053017964 -0.0010427829 2.4653587 170.3
-4.688026 -0.523233 -0.0088915853 64 -0.0065083457 9.664856e-05 2.7152011 170.6
-5.7294426 -0.19840576 -0.019757379 65 -0.0093247425 0.0011058142 2.8189824 181.25
-5.7898626 -0.26198462 -0.014232383 66 -0.003574813 0.0027861537 -3.1369326 181.75
-5.7661796 -0.31252348 -0.0049584596 67 -0.0052701654 0.0046577598 -2.8378036 182.05
-6.4747639 -0.51124889 -0.015054171 68 -0.0025450364 -0.00028420225 -3.1267951 184
-7.5271931 -0.38936782 -0.20607078 69 -0.037471056 0.017713837 3.0455544 186.3
-8.2293711 -0.1879189 -0.34057903 70 -0.073769614 0.0048319255 2.6663117 188.3
-8.1612883 -0.13751176 -0.38684461 71 -0.071579985 -0.013580383 2.2746291 188.7
-8.025012 -0.23177382 -0.47983745 72 -0.063274428 -0.046595894 1.7380548 189.25
-7.9068294 -0.2077872 -0.56514478 73 -0.035881545 -0.086594969 1.2381042 189.75
-7.8596745 -0.24710634 -0.62746084 74 -0.0058614137 -0.11235736 0.89924419 190.1
-7.8206658 -0.26663202 -0.67961222 75 0.03180223 -0.11979786 0.60493374 190.4
-7.4542251 -0.11800414 -0.79399478 76 0.070179097 -0.12259616 0.28044492 191.5
-6.6636028 -0.012694648 -0.14360529 77 0.00084370759 -0.012777025 0.18075855 193.55
-5.9522595 0.206157 0.57880032 78 0.057553854 0.045454878 0.17761751 195.1
-5.6373448 0.25609842 1.1458524 79 0.086164549 0.10824603 -0.088157445 196.1
-5.6334062 0.17816049 1.0824305 80 0.042681571 0.12084052 -0.34718487 196.4
-4.8910928 -0.16160141 -0.05480814 81 0.01063685 -0.0051068761 -0.35612214 197.85
-3.9387636 -0.51387614 -0.015481199 82 0.0036675045 -0.0044610454 -0.35636884 199.9
-3.0001631 -0.85896111 -0.0061202939 83 0.0016938723 -0.0044491328 -0.35683826 201.9
-2.7586505 -0.87200844 -0.0030859378 84 0.00056990277 -0.0063912817 -0.097574659 202.75
-2.7682445 -0.78418231 0.0013002716 85 -0.0019414501 -0.0057294685 0.23651406 203.15
-2.7847106 -0.73365009 -0.0023863199 86 -0.0010942415 -0.0052696322 0.49941561 203.5
-1.8249508 -0.20114455 -0.0030769201 87 -0.00041100828 -0.0036964146 0.49792606 205.75
-0.92315876 0.28475517 -0.0031071017 88 0.00073095935 -0.0066069919 0.49816144 207.8
-0.030364383 0.77510339 0.0038539211 89 0.0012171858 -0.0049910089 0.4988113 209.85
0.15224838 0.81933141 0.0048132036 90 0.0026575841 -0.0050675413 0.27974388 210.5
0.16469865 0.75422919 0.0032866425 91 0.003513705 -0.0049770153 -0.028992072 210.85
1.1801509 0.71342182 0.0093319546 92 0.0028921789 -0.0033647078 -0.037038468 212.9
2.2567599 0.67588449 0.01055922 93 0.0023905193 -0.0038455101 -0.03737253 215.05
