# .PCD v0.7 - Point Cloud Data file format
VERSION 0.7
FIELDS x y z intensity roll pitch yaw time
SIZE 4 4 4 4 4 4 4 8
TYPE F F F F F F F F
COUNT 1 1 1 1 1 1 1 1
WIDTH 114
HEIGHT 1
VIEWPOINT 0 0 0 1 0 0 0
POINTS 114
DATA ascii
3.6927719e-05 3.4811415e-05 7.803522e-05 0 -0.00011260851 -0.0016716848 -1.9592642e-11 0.2
0.33628651 -0.079571351 0.0018556976 1 -0.00045497838 -0.00018069068 -0.34803867 26.3
0.26091748 -0.148936 0.0037068077 2 0.00042630651 -0.00056549429 -0.79696655 26.75
0.18518128 -0.17499045 0.0011616376 3 -0.00078004668 -0.00074161094 -1.1447798 27.1
0.25247419 -0.68070114 -0.00037103187 4 -0.00043787566 -0.0010829726 -1.4643199 28.5
0.32403019 -1.7338624 -0.00034927021 5 -0.00082020496 -0.00014761608 -1.4940728 30.65
0.40721297 -2.8044775 -0.0020011177 6 -7.7031567e-05 -1.1352339e-05 -1.4934808 32.8
0.49551967 -3.8985291 -0.0050383881 7 0.00059742766 0.00075037073 -1.4932445 35
0.56858844 -4.9181156 -0.005034836 8 -6.3085441e-05 1.9764391e-06 -1.4935853 37.05
0.6627323 -5.9818978 -0.0048087798 9 0.00051771302 -0.0002984445 -1.4923688 39.2
0.74190742 -7.0293074 -0.01023134 10 0.00051595818 0.00025500072 -1.4926183 41.3
0.73253828 -7.6852269 -0.0088838106 11 0.0019818225 0.00010370712 -1.7131157 42.9
0.65823323 -7.6349864 -0.0058658011 12 0.0012271126 0.00060254411 -2.1105759 43.3
0.60874343 -7.5603819 -0.0086878603 13 0.00016423398 0.00065782655 -2.5074465 43.7
0.59234643 -7.4715848 -0.0078586144 14 -1.1166759e-05 0.00052189198 -2.9037988 44.1
0.60110438 -7.4204154 -0.0010214396 15 -0.00013710788 0.0012317077 3.1317697 44.35
0.57069373 -7.3520856 -0.0066021504 16 -0.00028996647 0.0012570022 2.8865325 44.7
0.066972792 -7.1679721 -0.0076279677 17 -0.00054687669 0.00037491153 2.6824808 46.05
0.045768343 -7.0969939 -0.0060898941 18 -0.00092574867 0.00078821601 2.4672592 46.4
0.041054908 -6.9881978 -0.0041960822 19 -0.00071639428 0.0013484561 2.1318419 47
0.070662975 -6.9042635 -0.00550139 20 -0.0011957942 0.00056520081 1.9000449 47.4
0.033205096 -6.5988588 -0.0053331782 21 -0.00088834233 0.00047738513 1.6472656 48.35
-0.024085345 -5.5571556 -0.0081992308 22 -0.00013446713 0.00091294921 1.632184 50.45
-0.11217316 -5.3699369 -0.0086742751 23 -2.00658e-05 0.00041678332 1.9460427 51.3
-0.17441678 -5.4299321 -0.0091999453 24 0.00014718108 0.00096554193 2.3398306 51.7
-0.19826894 -5.4922299 -0.0095518371 25 0.00041402789 0.0011861343 2.6619496 52.05
-1.1067696 -5.0219541 -0.015605102 26 0.00079481734 0.0011034741 2.6626134 54.15
-1.1575941 -5.0618334 -0.008941927 27 0.00088796974 0.00045682068 2.8698502 54.6
-2.2094622 -4.9786153 -0.0172249 28 0.00066967204 -0.00034580409 3.06916 57.1
-3.2830327 -4.9020834 -0.019523691 29 0.0010503542 -0.00036854786 3.0692911 59.25
-3.8538115 -4.9369521 -0.016683858 30 0.0015435158 -0.00050121226 -2.88943 60.85
-3.8100073 -4.9963388 -0.01599787 31 0.00056914153 -0.0020518359 -2.5449545 61.2
-3.7337537 -5.0369701 -0.016325405 32 0.00076216698 -0.0012622317 -2.1551387 61.6
-3.7616174 -5.2272768 -0.017454579 33 0.001075983 -0.0018264226 -1.7785918 62.55
-3.734479 -5.8653641 -0.021352015 34 -0.00010418651 -0.0025143928 -1.46021 64.35
-3.6194358 -6.8684268 -0.023812516 35 -0.00027857316 -0.00079264521 -1.4607815 66.45
-3.5032094 -7.8629909 -0.023959637 36 0.0026679037 -0.00024159939 -1.461481 68.45
-3.4901056 -8.7851591 -0.026535515 37 0.00097304588 -0.00040213947 -1.8582332 70.8
-3.5536366 -8.7304802 -0.020609276 38 0.0023021393 0.00088017335 -2.2076874 71.15
-3.5883398 -8.6853056 -0.017236253 39 0.0019634438 0.00033604322 -2.4569132 71.4
-3.6059737 -8.6276655 -0.021065557 40 0.0019909993 0.0025263224 -2.7045517 71.65
-3.6047661 -8.5531607 -0.018742947 41 0.001915769 0.00429272 -3.0504715 72
-3.571645 -8.4608135 -0.021574454 42 -0.00027001899 0.0037255439 2.837858 72.4
-3.513828 -8.4059191 -0.016666656 43 -0.0021785155 0.0051164976 2.4955692 72.75
-3.4981575 -8.3338213 -0.018445376 44 -0.0050157127 0.0057125385 2.2514043 73.1
-3.9509788 -7.6608353 -0.024363222 45 -0.0033298691 0.0022438825 1.942421 75.15
-3.9691446 -7.3246908 -0.028202115 46 -0.0027950415 0.0022270696 1.6741111 76.15
-3.9794946 -6.3809299 -0.032875944 47 -0.0017473575 0.0020105811 1.8884897 78.85
-3.9543233 -6.2360654 -0.034579623 48 -0.0017990067 0.0017308305 1.6074768 79.4
-3.9486618 -5.2276683 -0.036289208 49 -0.0013875583 0.0021012584 1.5876707 81.85
-3.972748 -4.1796026 -0.038060803 50 -0.00050065061 0.0023385792 1.5876733 83.95
-3.983897 -3.1010115 -0.04281557 51 -0.0016502844 0.0023697792 1.5874448 86.1
-4.0038395 -2.0808411 -0.046130642 52 -0.0018545261 0.0024366241 1.5872601 88.15
-4.0255566 -0.96217513 -0.049660712 53 -0.00091974164 0.0028246539 1.5874786 90.4
-4.0371361 0.040361322 -0.051958863 54 -0.0011005067 0.0025666028 1.5868956 92.4
-4.057765 1.1348627 -0.058407657 55 -0.00099164748 0.0026616326 1.5876982 94.6
-4.0733938 2.1575043 -0.063823156 56 -0.00064257561 0.0030564351 1.588084 96.65
-4.0947127 3.2793393 -0.061503947 57 -0.001144106 0.00061932736 1.5889004 98.9
-4.1040726 4.3226738 -0.068927623 58 -0.0031725576 0.0016707251 1.5894641 101
-4.1167026 5.3467345 -0.065453053 59 -0.0031712591 -0.00011819982 1.5890793 103.05
-4.1453991 6.4203892 -0.071885578 60 -0.0020857686 0.00026480042 1.5890857 105.2
-4.164566 7.4366212 -0.072845317 61 -0.0013169242 -0.00010162176 1.588688 107.25
-4.1914616 8.4357777 -0.074360475 62 -0.0012613698 -0.0017179684 1.627014 109.35
-4.2478604 8.416954 -0.067381792 63 -0.0020213169 -0.00046719232 1.8932711 109.65
-4.3022461 8.3654947 -0.077251464 64 -0.0014545113 0.0012382584 2.2373209 110
-4.3368063 8.2956228 -0.073053524 65 -0.001105768 0.0021216415 2.5824301 110.35
-4.3495474 8.2149591 -0.078215964 66 -0.00026643515 0.0028385583 2.927171 110.7
-4.3315887 8.1252232 -0.081242673 67 0.0010377195 0.00078741572 -2.9631655 111.1
-4.2856808 8.0599308 -0.080320805 68 0.0031213241 0.0021812995 -2.6214006 111.45
-4.2141681 8.0046749 -0.082696214 69 0.0035854513 0.00067110866 -2.2353709 111.85
-4.1918736 7.9613376 -0.080675095 70 0.0048335344 0.00080495427 -2.0290146 112.2
-4.2116227 7.78091 -0.069834128 71 0.0053495397 -0.00090452674 -1.8002176 112.9
-4.1849232 7.2132888 -0.074750356 72 0.0056982897 -0.002628254 -1.5969571 114.4
-4.1536994 6.2068458 -0.067965619 73 0.0054771141 -0.0027880222 -1.5219572 117.35
-4.1040835 5.1908312 -0.065647155 74 0.0055379923 -0.0025312966 -1.5211414 119.4
-4.0392747 4.1208892 -0.049974892 75 0.008114649 -0.0024229982 -1.5213486 121.55
-3.9941609 3.0537269 -0.044833321 76 0.0063366443 -0.0023059694 -1.521149 123.7
-4.0513158 2.9934764 -0.042000853 77 0.0068325982 -0.00054268277 -1.7787116 124.15
-4.0708675 1.9473882 -0.046922389 78 0.0032420056 -0.0027334506 -1.6151701 126.6
-4.12182 0.91964716 -0.039686214 79 0.0035666579 -0.0020390167 -1.6150656 128.65
-4.088378 0.13483679 -0.034942184 80 0.0038859851 -0.003722101 -1.3200142 130.65
-4.0202227 0.18851878 -0.03410171 81 0.0022391172 -0.0046113413 -0.92582214 131.05
-3.9569707 0.37260032 -0.058175344 82 0.0037052124 0.0034681594 -0.65549928 131.25
-3.6544468 0.1998304 -0.040463828 83 0.00039807279 -0.0024020006 -0.34600207 132.4
-3.0814946 0.093183964 -0.037303329 84 -0.0016174683 -0.0031129408 -0.084691748 134
-2.0649819 -0.14866646 -0.023171196 85 -3.3154462e-05 -0.0051269033 -0.10960609 136.3
-1.0667751 -0.25384122 -0.016926808 86 -5.212707e-05 -0.0036221135 -0.10943169 138.3
-0.042434562 -0.35818148 -0.010672545 87 0.00013063499 -0.0034671524 -0.10976209 140.35
0.48992282 -0.3540498 -0.0096354308 88 -0.0016010418 -0.0045795729 0.15607801 141.8
0.46896678 -0.29471526 -0.010597931 89 -0.001019737 -0.0040108343 0.38611421 142.05
0.60340184 -0.09641131 -0.010716853 90 -0.0028415285 -0.0016458962 0.74372578 143.05
0.56551176 -0.052618869 -0.010743997 91 -0.0037061342 -0.0010761274 0.98768002 143.4
0.61385846 0.12692519 -0.0085823201 92 -0.003614235 -0.0022861268 1.2246869 144.15
0.60561138 0.38130945 -0.0097883856 93 -0.003801608 -0.0021452657 1.4909903 145.1
0.6442216 1.423069 -0.0085200435 94 -0.0043068756 -0.0014785446 1.5279257 147.3
0.68638855 2.4460511 -0.016650498 95 -0.0029874831 -0.00021794481 1.5277824 149.35
0.72574741 3.4593122 -0.018649234 96 -0.0035476296 -0.0018639256 1.5413578 151.45
0.56993341 4.4873948 -0.0074193003 97 -0.0041055284 -0.0018398898 1.686219 153.8
0.61340004 4.6997266 -0.012026338 98 -0.0045642224 -0.0019262289 1.4218252 154.55
0.58288962 5.7100234 -0.021471007 99 -0.0033131863 -0.0010813104 1.5730799 156.9
0.5837549 6.7669835 0.0077935313 100 -0.013944906 -0.0041862372 1.5738761 159
0.52271187 6.937408 -0.0057470729 101 -0.011520907 -0.0022276463 1.7831805 159.65
0.45034519 6.877964 -0.0019386346 102 -0.010245898 0.0021872811 2.1740692 160.05
0.41226661 6.8108301 -0.0050648991 103 -0.0076524029 0.0059704375 2.5194561 160.4
0.39671257 6.7267075 -0.0014355417 104 -0.0055471729 0.009517421 2.914135 160.8
0.40767583 6.6725893 0.0036599953 105 -0.0034683726 0.010955278 -3.1239445 161.05
0.42603755 6.6207767 -0.0013628183 106 -0.00094538624 0.010626957 -2.8775761 161.3
0.46717823 6.5652447 -0.0030387871 107 0.00350749 0.0099453945 -2.5348017 161.65
0.52312654 6.5031719 -0.0014587283 108 0.0063905232 0.0078778965 -2.2017446 162.1
0.41649067 6.2567167 -0.0088829184 109 0.0080161588 0.0043184394 -1.9563445 163
0.3189913 5.5299077 -0.015886769 110 0.0053678057 -0.00095076655 -1.6339113 165
0.37453797 4.490994 -0.012714981 111 0.0056332373 -0.00065754424 -1.4583093 167.5
0.38545331 3.96417 -0.021007327 112 0.004589539 -0.00096190895 -1.6621195 168.8
0.40277818 3.7690575 -0.017601494 113 0.0040003709 -0.00034540371 -1.4372058 169.75
